ply
format ascii 1.0
element face 0
property list uchar int vertex_indices
element vertex 649
property float x
property float y
property float z
property uchar diffuse_red
property uchar diffuse_green
property uchar diffuse_blue
end_header
-4.738369e-01 -3.538442e-01 -2.696227e+00 100 179 115
-1.445193e-01 -8.571673e-01 -2.752799e+00 227 230 74
-4.910936e-01 -4.977940e-01 -2.739060e+00 31 27 24
-4.447951e-01 -5.540617e-01 -2.771374e+00 100 164 102
-5.195461e-01 -4.072825e-01 -2.687564e+00 36 38 33
-1.650969e-01 -3.189306e-01 -2.631357e+00 207 206 203
-1.239160e-01 -3.115964e-01 -2.649135e+00 213 217 214
-1.002240e-01 -2.582593e-01 -2.638684e+00 113 67 40
7.149318e-01 3.788026e-01 -2.943342e+00 211 227 226
-1.214819e-01 -4.352370e-01 -2.690451e+00 207 210 203
-4.455686e-01 -2.592370e-01 -2.691064e+00 54 78 64
-7.449282e-01 -2.338241e-01 -2.613685e+00 103 173 181
-7.501380e-01 -1.855426e-01 -2.594932e+00 101 169 182
-5.045992e-01 -5.985884e-01 -2.752132e+00 88 154 97
-1.416819e-01 -4.851101e-01 -2.699756e+00 31 28 28
7.409421e-03 -4.537812e-01 -2.737560e+00 27 24 29
-8.919417e-02 -4.342070e-01 -2.700179e+00 25 24 24
-1.244693e-01 -3.791980e-01 -2.669404e+00 209 211 208
-5.999948e-02 -3.729341e-01 -2.688915e+00 207 208 199
9.453809e-01 4.100108e-02 -3.196231e+00 203 212 205
2.278526e+00 -1.337588e+00 -5.270326e+00 132 122 127
-4.483013e-01 -1.031485e+00 -2.612972e+00 32 35 40
1.193071e-01 -6.244027e-01 -2.831490e+00 56 9 2
6.594412e-02 -6.190245e-01 -2.809108e+00 166 126 127
-7.595461e-01 -4.948082e-01 -2.695368e+00 128 171 174
-5.580931e-02 -5.268899e-01 -2.740325e+00 209 212 205
2.570052e-02 -5.153754e-01 -2.764131e+00 210 211 208
-1.135333e-01 -4.705779e-01 -2.703117e+00 19 19 24
-1.135333e-01 -4.705779e-01 -2.703117e+00 19 19 24
1.099464e-01 -4.434004e-01 -2.769707e+00 38 21 22
4.849871e-02 -4.186595e-01 -2.741271e+00 33 29 32
4.840574e-02 -4.188087e-01 -2.741859e+00 33 29 32
-1.473654e-01 -4.079780e-01 -2.672099e+00 34 34 36
-5.057797e-01 -3.427072e-01 -2.677145e+00 54 99 66
3.222027e-02 -3.369002e-01 -2.709108e+00 244 44 38
9.887683e-02 -3.118750e-01 -2.723972e+00 63 7 1
2.447519e-01 4.541502e-01 -2.779934e+00 182 211 220
-1.382518e-01 -6.589286e-01 -2.758817e+00 31 21 0
-1.381038e-01 -6.591116e-01 -2.759587e+00 31 21 0
-7.426621e-01 -5.096299e-01 -2.707976e+00 147 33 69
-1.308090e-01 -4.638500e-01 -2.695715e+00 210 209 202
7.931023e-02 -4.448239e-01 -2.760233e+00 25 21 25
7.947142e-02 -4.447628e-01 -2.759965e+00 25 21 25
-1.326195e-01 -4.170530e-01 -2.679081e+00 213 215 208
2.880778e-02 -3.960821e-01 -2.726255e+00 216 224 217
6.561608e-02 -3.907380e-01 -2.737965e+00 223 223 222
9.268200e-02 -3.871598e-01 -2.746543e+00 220 225 217
1.207694e-02 -3.663408e-01 -2.711266e+00 238 38 34
4.111338e-02 -3.633677e-01 -2.720622e+00 237 39 35
-4.920180e-01 -2.226525e-01 -2.648369e+00 68 89 79
-4.634376e-03 -4.753832e-01 -2.738918e+00 217 218 216
-3.833863e-01 -1.807203e-01 -2.688355e+00 204 216 208
1.084232e+00 2.442758e-01 -3.231530e+00 62 54 55
-4.432667e-01 -5.534794e-01 -2.768528e+00 100 164 102
-5.514882e-02 -4.306963e-01 -2.708787e+00 144 144 142
-5.277061e-01 -3.258496e-01 -2.660422e+00 78 158 113
-1.703969e-01 -5.101145e-01 -2.705776e+00 203 202 195
1.079463e+00 2.457563e-01 -3.227046e+00 62 54 55
1.963805e+00 -9.020438e-01 -5.689372e+00 128 117 120
1.909895e+00 -7.647139e-01 -5.836974e+00 140 130 133
1.909895e+00 -7.647139e-01 -5.836974e+00 140 130 133
2.029120e+00 -6.563862e-01 -5.945020e+00 133 122 128
2.731173e-01 4.818607e-01 -2.777525e+00 217 247 254
1.925445e+00 -1.114627e+00 -5.477146e+00 80 74 79
1.860760e+00 -7.850561e-01 -5.810434e+00 92 77 80
-3.271293e-01 -9.237076e-01 -2.680871e+00 28 79 153
-3.271293e-01 -9.237076e-01 -2.680871e+00 28 79 153
5.197263e-02 -8.756683e-01 -2.738886e+00 212 233 126
2.720496e-01 5.025884e-01 -2.780050e+00 21 50 52
-4.854480e-01 -2.751839e-01 -2.667402e+00 62 85 67
-7.934673e-01 -1.848618e-01 -2.577909e+00 138 147 165
-4.142978e-03 -5.205677e-01 -2.757305e+00 218 220 218
-7.335621e-01 -6.346834e-01 -2.755344e+00 113 35 38
-7.631849e-01 1.470507e-02 -2.520205e+00 181 136 130
9.999453e-01 8.224729e-01 -3.116299e+00 208 217 216
-2.405417e-02 -8.726429e-01 -2.759439e+00 234 237 74
-1.478541e-01 -8.589321e-01 -2.756486e+00 227 230 74
-9.737472e-02 -2.573242e-01 -2.645016e+00 113 67 40
6.987968e-01 -3.521171e-01 -3.547870e+00 122 123 123
-1.700681e-01 -3.184764e-01 -2.627617e+00 207 206 203
-6.768026e-01 -1.646546e-01 -2.627364e+00 128 158 170
6.532806e-01 4.626449e-02 -3.156552e+00 67 116 50
-1.743943e-01 -9.867795e-01 -2.683388e+00 87 94 94
-1.484657e-01 2.945032e-01 -2.777750e+00 64 190 226
-5.064574e-01 -6.604493e-01 -2.768373e+00 30 58 39
-8.915690e-02 3.073799e-01 -2.799358e+00 230 110 152
-1.702635e-01 -1.041213e+00 -2.630419e+00 24 60 49
-2.156946e-01 -9.327994e-01 -2.746186e+00 25 70 43
-3.387093e-01 -9.095558e-01 -2.685492e+00 193 211 214
1.926461e+00 -1.206091e+00 -5.391357e+00 131 128 132
6.197030e-01 -6.304462e-01 -3.006921e+00 37 63 16
-5.057185e-01 -3.431960e-01 -2.680081e+00 54 99 66
-1.357337e-01 -2.798597e-01 -2.632445e+00 114 64 37
-1.733214e-01 -1.529547e-01 -2.784560e+00 201 200 180
1.536827e-02 -7.571716e-03 -2.869168e+00 41 15 18
2.126264e+00 -7.985467e-02 -6.540573e+00 96 94 99
6.747371e-01 3.655862e-01 -2.970603e+00 115 128 103
-1.561938e-01 4.216136e-01 -2.879619e+00 215 242 198
4.906108e-01 5.451633e-01 -2.844611e+00 41 53 63
-1.941995e-01 -1.005437e+00 -2.658437e+00 40 42 44
1.997745e+00 -1.643970e+00 -4.934825e+00 94 75 73
-1.798983e-01 -9.327146e-01 -2.737837e+00 28 61 38
2.027716e+00 -1.563176e+00 -5.016246e+00 148 132 134
2.082816e+00 -1.526820e+00 -5.064596e+00 140 138 144
2.222090e+00 -1.517966e+00 -5.073822e+00 81 63 71
2.024743e+00 -1.481654e+00 -5.105158e+00 137 130 139
1.805111e+00 -1.460590e+00 -5.112191e+00 150 138 144
2.146846e+00 -1.426227e+00 -5.163423e+00 128 119 123
1.955191e+00 -1.260510e+00 -5.336372e+00 99 89 87
2.212563e+00 -8.931642e-01 -5.731798e+00 83 65 62
2.166041e+00 -7.817937e-01 -5.839996e+00 86 74 77
2.166041e+00 -7.817937e-01 -5.839996e+00 86 74 77
2.045586e+00 -6.901066e-01 -5.935092e+00 86 71 71
2.045586e+00 -6.901066e-01 -5.935092e+00 86 71 71
2.065521e+00 -3.264858e-01 -6.264968e+00 110 110 111
9.027021e-01 -7.161829e-02 -3.275484e+00 100 101 90
7.332581e-01 2.781891e-01 -2.963802e+00 204 224 224
1.861715e+00 -1.695294e+00 -4.870333e+00 96 80 85
-4.360508e-01 -9.973310e-01 -2.654736e+00 34 71 51
1.739755e+00 -1.624110e+00 -4.929727e+00 99 83 85
1.837715e+00 -1.588996e+00 -4.964182e+00 90 79 81
-3.058863e-01 -9.240539e-01 -2.673705e+00 20 78 160
2.130808e+00 -1.530305e+00 -5.061286e+00 88 75 79
7.784963e-02 -8.762229e-01 -2.736094e+00 216 238 122
5.229827e-02 -8.738262e-01 -2.735856e+00 212 233 126
2.283181e+00 -1.514830e+00 -5.094079e+00 81 72 77
1.777355e+00 -1.047250e+00 -5.541620e+00 127 113 115
2.241690e+00 -1.052859e+00 -5.556830e+00 85 73 75
1.908672e+00 -9.721283e-01 -5.618587e+00 128 119 126
2.052560e+00 -9.198277e-01 -5.686592e+00 80 57 57
-7.339483e-02 -4.549805e-01 -2.712173e+00 213 213 213
1.953579e+00 -8.777371e-01 -5.736043e+00 131 119 122
2.209123e+00 -3.580342e-01 -6.281233e+00 113 107 114
-2.921719e-01 -5.556121e-02 -2.786476e+00 134 94 119
2.113188e+00 7.489896e-03 -6.633019e+00 80 76 77
2.407799e+00 2.221235e-01 -6.869652e+00 49 42 43
2.725175e-01 5.022346e-01 -2.782545e+00 21 50 52
-6.734418e-02 -7.805954e-01 -2.774302e+00 221 198 54
-2.913350e-01 -7.276441e-01 -2.715004e+00 23 23 16
-5.554085e-01 2.990844e-01 -2.598021e+00 220 225 227
-6.897764e-01 -5.883182e-01 -2.733288e+00 183 165 141
1.126927e+00 5.430671e-01 -3.174466e+00 21 21 23
-8.042698e-02 -5.968585e-01 -2.754209e+00 17 17 15
7.483664e-01 2.142782e-01 -2.950932e+00 201 219 218
-6.701332e-01 -7.508019e-01 -2.823474e+00 71 148 161
-4.984966e-01 -7.028871e-01 -2.789303e+00 97 164 100
-4.974668e-01 -7.020982e-01 -2.792804e+00 97 164 100
3.056140e-01 -6.732304e-01 -2.956463e+00 116 181 93
6.750488e-01 -6.681897e-01 -2.986743e+00 113 183 95
-3.745579e-01 -2.726762e-01 -2.702339e+00 15 15 14
1.121097e-01 7.249765e-01 -2.807077e+00 117 123 122
2.872777e-01 -9.080554e-01 -2.765552e+00 242 252 94
3.175045e-01 -8.489738e-01 -2.755807e+00 25 23 18
-4.614497e-01 -4.007870e-01 -2.715153e+00 90 175 120
6.307332e-01 4.997275e-01 -2.935871e+00 197 217 209
-8.916553e-02 6.795618e-01 -2.789431e+00 147 143 137
-7.455284e-01 -9.051318e-01 -2.915634e+00 114 121 128
6.719832e-01 -7.835317e-01 -2.884626e+00 14 18 12
7.198254e-01 -9.092561e-03 -3.114418e+00 109 179 90
-7.633072e-01 6.602611e-01 -2.632555e+00 157 151 150
-3.094866e+00 3.345185e+00 -9.270247e+00 69 44 43
-2.618561e-01 -8.902270e-01 -2.804522e+00 111 112 107
6.953623e-01 -8.787808e-01 -2.914255e+00 21 17 14
-4.666579e-01 -7.523509e-01 -2.816577e+00 30 41 26
-1.050574e-02 -5.033412e-01 -2.745625e+00 126 127 124
8.105551e-02 -4.905029e-01 -2.773885e+00 217 215 212
-4.387173e-01 -2.263193e-01 -2.678819e+00 150 166 158
8.678743e-01 -4.636785e-02 -3.258039e+00 55 41 28
9.012594e-01 -8.952077e-03 -3.235944e+00 176 181 174
5.991659e-01 1.284082e-01 -3.156884e+00 81 137 68
-2.805813e-01 4.932710e-01 -2.738366e+00 61 49 40
-2.743512e-01 5.886767e-01 -2.746431e+00 198 200 194
-2.664096e-01 6.375181e-01 -2.746713e+00 151 150 145
-1.396308e-01 -1.052673e+00 -2.625409e+00 184 204 207
-1.413501e-01 -9.638170e-01 -2.705566e+00 41 48 47
1.031485e+00 -9.266312e-01 -2.870875e+00 60 32 14
-2.129822e-01 -8.945097e-01 -2.788097e+00 34 28 16
-5.237724e-01 -7.772581e-01 -2.800962e+00 95 154 92
-1.654111e-01 -5.648510e-01 -2.720620e+00 207 181 39
-1.685485e-01 -5.095456e-01 -2.700143e+00 203 202 195
-1.718562e-01 -3.942610e-01 -2.660524e+00 205 206 201
-1.451263e-01 -3.550899e-01 -2.654085e+00 128 126 128
5.061788e-02 -3.160318e-01 -2.709419e+00 92 1 0
-5.791044e-01 -2.575281e-01 -2.621407e+00 73 93 72
-4.513389e-01 -2.624776e-01 -2.678738e+00 57 78 65
-6.921679e-01 5.117657e-02 -2.550664e+00 181 206 156
-5.295232e-01 1.177568e-01 -2.674623e+00 221 78 134
-9.195775e-01 2.664783e-01 -2.634114e+00 113 92 92
6.009008e-01 6.052358e-01 -2.864117e+00 91 100 79
1.057872e+00 7.795796e-01 -3.110760e+00 198 201 205
-1.458179e-01 -5.287385e-01 -2.710135e+00 53 12 6
-5.060592e-02 -4.648728e-01 -2.721577e+00 27 29 33
-8.923404e-02 -4.340927e-01 -2.700372e+00 25 24 24
2.567041e-02 -4.334438e-01 -2.734940e+00 210 213 210
-7.791055e-02 -4.033032e-01 -2.693134e+00 25 26 24
-3.473612e-02 -3.974100e-01 -2.705167e+00 29 29 27
-3.497053e-02 -3.967297e-01 -2.705659e+00 29 29 27
-2.278863e-02 -3.449182e-01 -2.693946e+00 215 214 213
4.257968e-03 -3.370226e-01 -2.701689e+00 33 25 20
4.207251e-03 -3.368714e-01 -2.702632e+00 33 25 20
-4.037241e-01 -1.950413e-01 -2.684729e+00 58 72 62
9.442229e-01 4.163841e-02 -3.196868e+00 203 212 205
-1.540488e-02 7.311592e-02 -2.883641e+00 120 201 214
9.010628e-01 7.109002e-02 -3.183860e+00 197 207 199
9.330948e-01 7.605239e-02 -3.179370e+00 74 62 46
7.395741e-01 3.033374e-01 -2.972119e+00 102 105 88
-8.261335e-01 3.520698e-01 -2.588618e+00 151 140 143
2.737230e-01 -8.447435e-01 -2.756352e+00 131 135 124
6.809214e-01 -8.461882e-01 -2.904962e+00 127 141 136
-7.346054e-01 -7.644714e-01 -2.792756e+00 168 74 97
-5.222247e-01 -6.297498e-01 -2.756174e+00 96 159 106
-9.016660e-02 -5.192396e-01 -2.725939e+00 207 210 203
1.111342e-01 -5.240624e-01 -2.795393e+00 34 12 12
8.641750e-02 -5.074310e-01 -2.780887e+00 213 215 211
1.129914e-01 -4.908802e-01 -2.784154e+00 41 14 9
1.111858e-01 -4.711153e-01 -2.780610e+00 41 12 7
5.929609e-02 -4.568402e-01 -2.759396e+00 20 22 22
6.031433e-02 -4.576519e-01 -2.758067e+00 20 22 22
1.079897e+00 -5.378159e-01 -3.354761e+00 32 27 22
-5.508137e-02 -4.107325e-01 -2.703851e+00 198 201 193
-1.176008e-01 -4.026928e-01 -2.681943e+00 28 31 33
-1.161003e-02 -4.037941e-01 -2.715490e+00 213 216 210
-1.180282e-02 -4.037543e-01 -2.717027e+00 213 216 210
1.079025e-01 -3.741478e-01 -2.749392e+00 44 10 6
-9.078389e-02 -3.531298e-01 -2.672978e+00 208 211 209
-9.089196e-02 -3.543085e-01 -2.673419e+00 208 211 209
-5.772823e-01 -3.447774e-01 -2.644400e+00 37 48 36
8.183361e-02 -3.530881e-01 -2.731008e+00 246 43 30
8.184153e-02 -3.509032e-01 -2.730172e+00 246 43 30
-3.299214e-02 -3.458841e-01 -2.687944e+00 209 214 209
3.170313e-02 -3.365236e-01 -2.709136e+00 244 44 38
7.950084e-02 -3.282217e-01 -2.723912e+00 243 42 33
7.944268e-02 -3.277599e-01 -2.723450e+00 243 42 33
9.857184e-02 -3.109472e-01 -2.725642e+00 63 7 1
-8.005982e-01 -1.235884e-01 -2.553294e+00 177 122 140
1.084382e+00 2.844546e-01 -3.228442e+00 55 51 53
6.740298e-01 4.812542e-01 -2.928270e+00 216 232 231
-7.949512e-01 5.538405e-01 -2.618108e+00 40 21 17
-8.145279e-01 5.899398e-01 -2.639880e+00 98 80 77
-1.104464e-01 7.111594e-01 -2.757800e+00 134 133 130
-1.098191e-01 7.125188e-01 -2.760277e+00 134 133 130
-1.183870e-01 -9.186456e-01 -2.766979e+00 51 35 3
2.198906e+00 -1.438785e+00 -5.140502e+00 81 76 77
-5.142275e-01 -8.086024e-01 -2.814206e+00 35 66 40
-7.150279e-01 -7.851921e-01 -2.804287e+00 146 24 52
1.570855e-01 -7.859446e-01 -2.896652e+00 193 63 29
-7.215214e-01 -7.097448e-01 -2.780570e+00 149 26 54
1.673894e+00 -1.224722e+00 -5.330146e+00 96 81 88
1.673894e+00 -1.224722e+00 -5.330146e+00 96 81 88
-5.335841e-01 -6.527338e-01 -2.758315e+00 111 164 112
8.374853e-02 -6.152649e-01 -2.815788e+00 163 125 122
-7.417395e-01 -5.102842e-01 -2.706023e+00 147 33 69
-4.536026e-02 -5.105609e-01 -2.737294e+00 28 27 23
-4.514857e-02 -5.101630e-01 -2.736995e+00 28 27 23
-9.322455e-02 -4.889846e-01 -2.716427e+00 214 212 206
3.883478e-02 -4.913184e-01 -2.762177e+00 30 28 28
3.883478e-02 -4.913184e-01 -2.762177e+00 30 28 28
-6.379085e-02 -4.830663e-01 -2.724793e+00 206 209 205
-6.375040e-02 -4.836918e-01 -2.724098e+00 206 209 205
-8.241758e-02 -4.747123e-01 -2.715463e+00 22 21 26
-8.241758e-02 -4.747123e-01 -2.715463e+00 22 21 26
1.818408e+00 -9.285865e-01 -5.660744e+00 128 126 131
2.259324e-02 -4.729838e-01 -2.749589e+00 214 215 208
-1.306669e-01 -4.636624e-01 -2.695215e+00 210 209 202
-1.926939e-02 -4.638007e-01 -2.732875e+00 13 17 19
-9.968394e-02 -4.587452e-01 -2.703841e+00 214 217 211
-9.959074e-02 -4.583659e-01 -2.703496e+00 214 217 211
-1.183459e-02 -4.476948e-01 -2.729195e+00 218 219 217
6.037292e-02 -4.380822e-01 -2.749274e+00 216 222 220
9.407464e-02 -4.316836e-01 -2.761192e+00 216 218 215
-1.021639e-01 -4.128632e-01 -2.689473e+00 215 222 216
2.837013e-02 -3.951674e-01 -2.727396e+00 216 224 217
-1.046180e-01 -3.854152e-01 -2.674646e+00 216 217 214
7.815037e-02 -3.746584e-01 -2.739464e+00 21 20 16
-3.414442e-02 -3.457847e-01 -2.688705e+00 209 212 208
9.978989e-02 -3.415740e-01 -2.735279e+00 110 0 0
9.978989e-02 -3.415740e-01 -2.735279e+00 110 0 0
2.828398e+00 -7.076098e-01 -5.981152e+00 56 53 56
7.637574e-01 5.642245e-02 -3.049788e+00 111 121 91
7.335980e-01 1.044934e-01 -3.015039e+00 164 181 163
7.426321e-01 1.344099e-01 -2.992047e+00 190 202 191
6.894919e-01 4.270399e-01 -2.939294e+00 169 180 166
-3.885808e-02 4.642492e-01 -2.786469e+00 160 151 142
-3.885808e-02 4.642492e-01 -2.786469e+00 160 151 142
2.241376e-01 4.595238e-01 -2.782676e+00 27 34 42
-7.066536e-02 5.063367e-01 -2.765215e+00 116 112 109
-7.819439e-01 5.019491e-01 -2.607745e+00 52 28 24
-2.845093e-01 5.473090e-01 -2.739555e+00 69 61 54
-2.786358e-01 6.325681e-01 -2.749308e+00 133 130 121
-7.676978e-01 6.883028e-01 -2.627001e+00 137 122 125
-3.003354e-01 -9.937951e-01 -2.669771e+00 15 16 13
-3.522440e-01 -9.323832e-01 -2.674220e+00 159 184 221
1.327461e-01 -9.011982e-01 -2.732930e+00 190 205 90
1.158999e-01 -8.981705e-01 -2.732324e+00 197 215 102
-4.265951e-01 -7.195129e-01 -2.826826e+00 93 136 91
-5.173254e-01 -6.447165e-01 -2.763690e+00 19 61 23
-6.096785e-02 -6.362186e-01 -2.774249e+00 174 121 115
-3.702515e-02 -6.316796e-01 -2.780598e+00 188 149 148
-1.496201e-02 -6.282371e-01 -2.785904e+00 170 133 129
-5.032109e-01 -6.225159e-01 -2.760847e+00 16 57 22
4.362113e-02 -6.199997e-01 -2.803465e+00 183 141 145
1.047222e-01 -6.114703e-01 -2.823268e+00 183 141 139
-1.069060e-01 -5.009810e-01 -2.716023e+00 17 15 13
-1.077998e-01 -5.014111e-01 -2.716555e+00 17 15 13
9.919533e-02 -5.068951e-01 -2.787414e+00 218 222 216
-7.447439e-01 -4.891161e-01 -2.697054e+00 22 100 120
1.710682e+00 -9.480073e-01 -5.608290e+00 92 77 79
-3.063031e-02 -4.784716e-01 -2.733768e+00 218 220 216
-5.286633e-03 -4.742848e-01 -2.740666e+00 217 218 216
-7.344052e-02 -4.562781e-01 -2.711221e+00 213 213 213
9.760625e-02 -4.588998e-01 -2.771869e+00 218 222 217
9.793588e-02 -4.591689e-01 -2.771407e+00 218 222 217
-3.363976e-02 -4.517862e-01 -2.722750e+00 219 215 217
4.246287e-02 -4.535174e-01 -2.749378e+00 19 15 18
4.246787e-02 -4.535146e-01 -2.749358e+00 19 15 18
1.300432e-03 -4.367100e-01 -2.731056e+00 13 15 11
9.790745e-04 -4.354714e-01 -2.733812e+00 13 15 11
2.298249e-02 -3.545061e-01 -2.711848e+00 91 2 0
-2.901636e-03 -3.543423e-01 -2.704112e+00 60 17 11
-1.524390e-01 -3.456281e-01 -2.651126e+00 17 17 16
-1.523180e-01 -3.455333e-01 -2.649891e+00 17 17 16
5.153270e-02 -3.495255e-01 -2.721640e+00 80 1 0
-1.368728e-02 -3.292632e-01 -2.688077e+00 222 220 215
4.725900e-01 -3.156000e-01 -2.622981e+00 100 173 76
1.952037e+00 -6.826123e-01 -5.915713e+00 133 121 125
5.067617e-02 -3.162173e-01 -2.709481e+00 81 2 0
-7.491188e-01 -3.047778e-01 -2.633543e+00 82 166 185
2.030573e+00 -6.560254e-01 -5.943930e+00 133 122 128
1.958694e+00 -6.533182e-01 -5.944456e+00 81 61 63
2.013282e+00 -5.533689e-01 -6.042779e+00 132 119 125
-7.609155e-01 -2.100553e-01 -2.591293e+00 72 166 196
-3.834368e-01 -1.808189e-01 -2.687896e+00 204 216 208
8.809359e-01 -2.653421e-02 -3.263607e+00 52 49 34
4.934318e-01 2.431605e-02 -3.157187e+00 39 87 4
1.008130e+00 4.881708e-02 -3.211864e+00 219 224 220
8.613911e-01 1.450823e-01 -3.144963e+00 75 70 62
1.051883e+00 2.438590e-01 -3.200352e+00 214 211 214
6.504712e-01 3.739208e-01 -2.979488e+00 135 152 133
6.736304e-01 4.142863e-01 -2.943725e+00 217 232 226
6.602244e-01 4.253487e-01 -2.943857e+00 158 175 158
-8.585788e-01 4.555049e-01 -2.657658e+00 81 68 68
-7.623351e-01 5.075357e-01 -2.597494e+00 131 114 108
6.436184e-01 5.840672e-01 -2.838342e+00 122 139 121
6.553801e-01 5.908830e-01 -2.826976e+00 190 208 195
1.181687e-01 -6.252409e-01 -2.836108e+00 77 25 9
-3.663969e-03 -5.206901e-01 -2.756237e+00 219 220 222
-1.813174e-01 -4.792981e-01 -2.714849e+00 169 124 98
-3.738564e-01 3.810625e-01 -2.748908e+00 233 238 241
-3.752678e-01 3.852162e-01 -2.759013e+00 233 238 241
5.631465e-02 -9.327709e-01 -2.751285e+00 77 59 18
4.428607e-01 2.966835e-01 -2.803626e+00 97 4 0
-1.287809e-01 4.588457e-01 -2.813336e+00 106 92 79
-4.867970e-01 -5.017611e-01 -2.725016e+00 44 41 41
-6.373438e-01 -2.190026e-01 -2.623282e+00 18 18 16
-1.233459e-01 5.763768e-01 -2.798533e+00 178 183 179
-4.854101e-01 -1.049674e+00 -2.598605e+00 29 37 37
-2.197508e-01 5.325038e-01 -2.758492e+00 186 191 181
-4.649755e-01 -6.290832e-01 -2.779357e+00 41 35 34
-5.300906e-01 -2.878245e-01 -2.637736e+00 77 90 72
-1.668782e-01 -2.673281e-01 -2.627568e+00 181 111 66
-1.668782e-01 -2.673281e-01 -2.627568e+00 181 111 66
-1.726784e-01 3.916397e-01 -2.874239e+00 235 243 247
-1.291791e-02 -8.770219e-01 -2.718103e+00 231 233 77
-4.138156e-01 -5.732142e-01 -2.785599e+00 29 21 18
-6.689049e-01 -1.675112e-01 -2.619465e+00 108 170 188
2.776949e-01 1.497892e-01 -2.839108e+00 28 54 17
-1.212828e-02 -1.023054e+00 -2.644076e+00 181 136 67
-1.212828e-02 -1.023054e+00 -2.644076e+00 181 136 67
1.064052e+00 -5.751701e-01 -3.428277e+00 109 103 95
-4.518353e-01 -1.948418e-01 -2.657736e+00 89 99 88
-4.390929e-01 -1.019923e-01 -2.724844e+00 180 178 189
-6.910603e-01 4.928126e-02 -2.546656e+00 189 209 173
-5.268064e-01 3.872277e-01 -3.025605e+00 93 184 215
3.019769e-01 2.317460e-01 -2.846184e+00 92 0 0
-6.409355e-01 2.266862e-01 -2.597564e+00 228 233 237
-1.971584e-01 3.706795e-01 -2.939517e+00 230 132 164
5.324781e-01 -1.130743e+00 -2.650198e+00 145 148 138
2.138395e-01 -1.071224e+00 -2.627103e+00 45 49 48
5.865459e-01 -1.104010e+00 -2.683298e+00 148 153 142
-6.778397e-02 -1.019717e+00 -2.647543e+00 46 51 54
1.199951e-01 -9.949657e-01 -2.680719e+00 42 51 52
-3.097761e-02 -9.526045e-01 -2.728983e+00 102 123 109
-5.134714e-01 -5.738695e-01 -2.745016e+00 45 40 40
-6.720631e-01 -3.659703e-01 -2.689170e+00 201 188 151
-6.900484e-01 -2.202669e-01 -2.635902e+00 208 110 131
-5.344960e-01 -1.069351e-01 -2.673478e+00 182 86 114
-3.808858e-01 -8.856065e-02 -2.746550e+00 179 195 207
-4.122326e-01 -7.372854e-02 -2.726746e+00 186 87 118
-4.623422e-01 4.073449e-01 -3.062084e+00 223 122 156
-7.009132e-01 3.281991e-01 -2.576652e+00 157 165 158
-1.798886e-01 5.648004e-01 -2.808296e+00 192 201 196
2.395404e-01 6.479634e-01 -2.813033e+00 158 167 162
2.032940e-01 6.429020e-01 -2.732369e+00 150 155 145
-5.070980e-01 -1.145684e+00 -2.518644e+00 91 116 111
6.692800e-01 -8.890762e-01 -2.908201e+00 147 152 142
-5.052084e-01 -6.656017e-01 -2.774204e+00 46 66 42
-1.738528e-01 -1.513160e-01 -2.790505e+00 203 201 179
4.452672e-01 2.661548e-01 -2.885337e+00 120 18 18
3.005753e-01 -1.180430e+00 -2.525522e+00 151 171 168
-1.174290e-01 -9.197208e-01 -2.758563e+00 43 33 9
2.229453e-02 -8.742448e-01 -2.740831e+00 39 42 6
2.505261e-02 -6.239612e-01 -2.797750e+00 183 135 133
3.102426e-02 -6.218541e-01 -2.802410e+00 183 135 133
-1.323877e-01 -4.163801e-01 -2.678867e+00 218 219 217
-4.757394e-01 -2.199098e-01 -2.340365e+00 155 195 197
-6.614708e-01 3.562965e-01 -2.557711e+00 230 230 234
-6.973789e-01 -8.054411e-01 -2.814584e+00 195 76 113
7.766286e-02 -8.775395e-01 -2.738023e+00 218 234 126
-4.488013e-01 -7.292082e-01 -2.818420e+00 95 130 88
1.028058e+00 -7.671560e-01 -2.763091e+00 109 144 63
5.915048e-04 -5.958927e-01 -2.899139e+00 25 19 16
-3.247649e-03 -5.213614e-01 -2.755105e+00 221 222 219
1.496317e-02 -4.070759e-01 -2.726060e+00 17 17 18
1.505045e-02 -4.069306e-01 -2.726280e+00 17 17 18
-1.453282e-01 -3.910586e-01 -2.666131e+00 211 214 214
-3.792113e-02 -3.758594e-01 -2.697124e+00 223 216 214
2.315385e-02 -3.545198e-01 -2.712516e+00 117 6 2
9.849644e-01 7.125409e-02 -3.193833e+00 211 209 201
9.461112e-01 7.721329e-02 -3.148492e+00 204 208 199
-4.634692e-01 -4.017560e-01 -2.718667e+00 90 175 120
-9.525013e-02 -5.171040e-01 -2.729046e+00 200 201 196
-5.551598e-01 1.136691e-01 -2.691316e+00 221 78 134
3.464310e-01 -3.956396e-02 -3.119406e+00 104 154 75
-5.048167e-01 -6.647873e-01 -2.773270e+00 28 57 33
-5.527577e-02 -4.103893e-01 -2.703353e+00 198 201 193
4.814329e-02 -4.713298e-01 -2.756552e+00 214 218 212
9.074436e-01 7.698609e-03 -3.214872e+00 199 203 197
5.818387e-03 -6.263299e-01 -2.792183e+00 187 146 145
-1.511674e-01 -3.780737e-01 -2.661106e+00 19 18 17
-1.518392e-01 -3.782520e-01 -2.662762e+00 19 18 17
9.506247e-02 -2.966550e-01 -2.720375e+00 247 39 33
-6.810725e-01 -2.964197e-01 -2.663004e+00 183 87 112
7.969027e-02 -3.453858e-01 -2.735477e+00 243 42 33
-6.933201e-01 -6.565753e-02 -2.588887e+00 140 171 175
-1.489274e-01 -6.929221e-01 -2.741914e+00 211 185 39
-1.242159e-01 -3.103380e-01 -2.651485e+00 217 221 216
-4.864483e-01 3.290908e-01 -2.793981e+00 235 237 242
-1.713007e-01 -3.950088e-01 -2.661172e+00 210 210 205
-5.724537e-01 -3.168678e-01 -2.646884e+00 87 111 87
-6.597374e-01 -4.949512e-01 -2.732542e+00 116 178 177
-7.849689e-02 -4.011398e-01 -2.694710e+00 29 29 27
-2.640093e-01 3.056220e-01 -2.796010e+00 95 200 226
1.331473e-01 -1.307282e+00 -2.491725e+00 57 23 11
-9.113695e-02 -3.535182e-01 -2.673682e+00 213 214 213
-4.142457e-01 -7.521067e-01 -2.842201e+00 120 147 131
-7.244173e-01 -6.840500e-01 -2.767765e+00 148 30 57
-1.087302e-01 -5.022535e-01 -2.714449e+00 16 18 13
7.976374e-02 -4.634219e-01 -2.765817e+00 218 219 219
-4.553490e-01 3.166949e-03 -2.682760e+00 170 199 207
4.203205e-01 1.073258e+00 -2.837574e+00 59 28 24
-6.118743e-02 -6.365463e-01 -2.774152e+00 162 120 121
5.202835e-02 -3.498554e-01 -2.721512e+00 92 7 1
-5.658511e-01 -4.855045e-01 -2.722597e+00 33 35 29
4.353405e-01 4.660366e-01 -2.839841e+00 135 210 113
2.184353e-01 -1.008558e+00 -2.680743e+00 21 62 39
8.222503e-02 -4.062993e-01 -2.750145e+00 75 78 77
-5.440321e-01 -3.310034e-01 -2.662023e+00 79 149 108
6.697932e-01 5.200459e-01 -2.903321e+00 120 123 104
2.496413e-01 7.057700e-01 -2.688829e+00 220 231 230
5.448085e-01 -1.098985e+00 -2.661964e+00 41 26 17
-4.724284e-01 -7.962449e-01 -2.821834e+00 69 150 100
-4.150299e-01 -7.797245e-01 -2.839731e+00 76 155 103
-2.519246e-01 3.901637e-01 -2.780463e+00 168 169 154
-2.519246e-01 3.901637e-01 -2.780463e+00 168 169 154
6.720820e-01 5.171466e-01 -2.904778e+00 117 121 103
-6.285892e-01 -1.138489e+00 -2.523394e+00 77 106 88
1.101401e-01 -5.269634e-01 -2.795057e+00 22 19 19
-6.622392e-01 -4.973773e-01 -2.739253e+00 107 170 168
5.261417e-01 1.501997e-01 -3.185422e+00 18 35 13
-5.107643e-01 9.666456e-02 -2.620600e+00 197 214 166
-5.689589e-01 1.872181e-01 -2.577989e+00 212 100 138
6.387215e-01 3.638527e-01 -2.992597e+00 161 184 160
2.297641e-01 -1.112056e+00 -2.565925e+00 60 79 96
-3.163932e-01 -9.929269e-01 -2.661196e+00 61 91 78
9.139140e-01 -8.985575e-02 -3.274258e+00 116 114 101
9.137079e-01 -9.163635e-02 -3.267884e+00 116 114 101
9.444390e-01 -2.506291e-02 -3.241927e+00 205 211 204
6.985472e-01 4.733126e-01 -2.909344e+00 161 169 158
-4.704114e-02 -6.496549e-01 -2.779050e+00 18 18 16
8.191783e-02 -5.076604e-01 -2.781193e+00 214 216 213
6.754386e-03 -6.265664e-01 -2.790926e+00 186 150 152
-5.162462e-03 -4.742884e-01 -2.741397e+00 215 219 216
5.980323e-02 -9.727053e-01 -2.677977e+00 33 69 55
-4.226084e-01 -7.370452e-01 -2.832757e+00 40 64 46
-1.244229e-01 -6.428053e-01 -2.757937e+00 144 117 113
1.197673e-01 -6.101691e-01 -2.830541e+00 49 7 0
-1.027953e-01 -5.132483e-01 -2.720736e+00 213 216 211
-1.028330e-01 -5.132442e-01 -2.720957e+00 213 216 211
9.900002e-02 -4.827796e-01 -2.779287e+00 214 217 217
-7.713842e-02 -4.982651e-01 -2.722204e+00 9 13 17
-2.979488e-02 -4.647061e-01 -2.727738e+00 10 13 20
9.315561e-02 -4.468496e-01 -2.765842e+00 16 13 16
-5.336500e-02 -4.453735e-01 -2.714217e+00 210 212 205
-1.316218e-01 -3.592607e-01 -2.660957e+00 17 16 18
-2.893250e-03 -3.224134e-01 -2.695471e+00 17 20 23
-1.281173e-01 -2.632524e-01 -2.633149e+00 174 112 68
4.096824e-01 -2.056845e-01 -2.632721e+00 147 214 118
9.461629e-01 4.947532e-02 -3.184471e+00 213 214 208
8.219024e-01 1.771862e-01 -3.147912e+00 195 198 192
8.793162e-01 1.982572e-01 -3.126495e+00 179 185 178
7.584933e-01 1.633783e-01 -2.962608e+00 201 213 209
7.367132e-01 4.044763e-01 -2.925665e+00 167 173 160
-6.959535e-01 -3.818580e-01 -2.679560e+00 200 63 107
-7.493147e-01 -1.867039e-01 -2.593229e+00 108 176 185
9.092827e-01 4.802499e-01 -3.053074e+00 131 107 98
-8.944590e-02 -1.194865e+00 -2.466431e+00 13 13 11
-6.216302e-01 -1.075853e+00 -2.515590e+00 28 28 30
9.041142e-02 -3.707618e-01 -2.741799e+00 23 16 21
-8.830741e-01 3.436272e+00 -9.338630e+00 92 58 57
-7.530179e-01 3.582872e-02 -2.527437e+00 183 202 153
7.142660e-01 -8.546591e-01 -2.851362e+00 78 118 43
-1.053010e-01 -3.857941e-03 -2.862572e+00 71 195 229
1.125007e-01 -5.204393e-01 -2.796220e+00 34 12 12
-3.480049e-02 -3.462921e-01 -2.687164e+00 209 212 208
4.509040e-01 7.123580e-01 -2.786646e+00 139 142 130
2.737859e-01 -8.295113e-01 -2.823173e+00 20 19 17
-5.506916e-01 -3.331669e-01 -2.655456e+00 88 135 99
2.936360e-01 -9.055348e-01 -2.770689e+00 240 249 105
-4.399913e-01 4.838324e-01 -2.725674e+00 178 177 169
3.606827e-01 -9.980604e-01 -2.702947e+00 7 13 12
-5.194765e-01 -4.025886e-01 -2.691068e+00 59 56 52
-3.125289e-01 6.046594e-01 -2.722423e+00 192 195 190
3.464672e-01 -1.323414e+00 -2.565703e+00 18 14 13
7.450918e-03 -4.546716e-01 -2.737029e+00 34 28 25
-9.345132e-02 2.003272e-01 -2.800435e+00 200 232 198
-6.326888e-01 2.181807e-01 -2.657939e+00 97 176 204
-8.563597e-01 2.643182e-01 -2.617789e+00 133 132 123
8.722270e-02 7.789731e-01 -2.791627e+00 140 140 134
-6.704398e-01 2.200300e-01 -2.606264e+00 64 52 38
-6.974433e-01 3.423679e-01 -2.610280e+00 159 167 159
-2.636681e-01 4.596788e-01 -2.766100e+00 76 69 61
-2.843444e-01 5.448104e-01 -2.745321e+00 78 66 54
-7.547132e-01 -9.975471e-01 -2.993097e+00 64 64 66
-4.363634e-01 -9.944355e-01 -2.671934e+00 42 85 66
-4.140893e-01 -7.513923e-01 -2.845204e+00 120 147 131
-1.173568e-02 -4.481270e-01 -2.730784e+00 224 224 221
-7.646188e-01 -1.814820e-01 -2.585680e+00 124 171 191
9.121258e-01 1.103076e-01 -3.148347e+00 190 196 181
7.746287e-01 2.587652e-01 -2.951115e+00 215 234 234
7.746287e-01 2.587652e-01 -2.951115e+00 215 234 234
6.579059e-01 3.245341e-01 -3.007697e+00 94 110 74
2.542935e-01 4.324860e-01 -2.773626e+00 93 133 76
2.712266e-01 4.774868e-01 -2.769697e+00 219 244 252
-7.845395e-01 -9.401044e-01 -2.942024e+00 74 70 73
-7.483750e-01 -9.207044e-01 -2.937468e+00 121 123 124
-2.337880e-02 -6.576067e-01 -2.796258e+00 212 195 79
9.839590e-02 -4.817684e-01 -2.783483e+00 218 222 219
-8.702148e-01 2.492180e-01 -2.623972e+00 80 58 50
7.106492e-01 3.331616e-01 -2.964329e+00 147 151 137
-3.155711e-01 5.359528e-01 -2.750296e+00 141 140 135
2.674290e-01 4.974062e-01 -2.773739e+00 37 65 61
1.043223e+00 6.096541e-01 -3.020537e+00 26 22 36
-7.879469e-01 5.016140e-01 -2.599680e+00 67 43 36
-6.703781e-01 -8.005966e-01 -2.829621e+00 113 162 176
1.031329e-01 -1.687315e-01 -2.736521e+00 32 30 18
-1.155294e-01 -6.597866e-01 -2.762767e+00 17 16 8
-4.360189e-02 -3.626818e-01 -2.686430e+00 18 20 19
1.198699e-01 -6.102913e-01 -2.829354e+00 49 7 0
-9.039320e-02 -7.697439e-01 -2.798751e+00 220 193 41
-1.256054e-01 5.869729e-01 -2.801454e+00 179 181 176
-1.689932e-01 -1.344410e+00 -2.442339e+00 149 146 143
9.237151e-02 -1.310463e+00 -2.491611e+00 176 175 164
7.150051e-01 3.914859e-01 -2.952262e+00 210 227 222
-9.391281e-02 6.754176e-01 -2.775127e+00 147 139 131
1.378428e-01 5.739025e-01 -2.712821e+00 201 213 212
3.655797e-01 -1.331621e+00 -2.557883e+00 130 132 128
3.655797e-01 -1.331621e+00 -2.557883e+00 130 132 128
-5.236309e-01 -7.775408e-01 -2.802277e+00 97 159 98
5.546079e-01 3.189854e-01 -2.964056e+00 158 217 123
-6.733800e-02 -1.394656e+00 -2.440524e+00 99 95 93
-2.355655e-01 -1.374918e+00 -2.431664e+00 36 26 24
-2.668527e-01 -1.373977e+00 -2.424097e+00 34 22 22
-2.462160e-01 -1.356757e+00 -2.423852e+00 153 148 143
-2.980565e-01 -1.224621e+00 -2.501138e+00 120 120 115
-1.391401e-01 -1.231466e+00 -2.511807e+00 131 133 128
6.075606e-01 -1.243693e+00 -2.624198e+00 150 140 134
4.958682e-01 -1.236899e+00 -2.594455e+00 178 186 173
6.314431e-01 -1.217686e+00 -2.628695e+00 183 191 183
-6.884659e-01 -2.229029e-01 -2.633637e+00 205 101 125
3.465889e-01 -3.876014e-02 -3.120183e+00 110 161 80
3.772579e-01 -3.086748e-02 -3.122531e+00 24 52 7
9.563460e-01 -8.406806e-04 -3.228190e+00 122 110 93
9.563460e-01 -8.406806e-04 -3.228190e+00 122 110 93
9.511125e-01 9.190019e-02 -3.151792e+00 191 199 193
6.800234e-01 3.588118e-01 -2.969915e+00 130 139 116
-2.555591e-01 5.580581e-01 -2.737745e+00 195 202 197
-2.587806e-01 6.209990e-01 -2.733730e+00 151 144 144
-2.315182e-01 -1.173424e+00 -2.490831e+00 10 11 10
4.719747e-01 -1.242125e+00 -2.584528e+00 186 192 180
6.581610e-01 -1.217530e+00 -2.632064e+00 187 194 184
6.490406e-02 -8.879540e-01 -2.740886e+00 47 46 16
9.842449e-01 8.756304e-02 -3.183666e+00 94 68 51
9.842449e-01 8.756304e-02 -3.183666e+00 94 68 51
2.625225e-01 3.638993e-01 -2.759341e+00 60 81 37
9.109373e-02 -9.072540e-01 -2.730848e+00 29 27 14
7.619703e-02 -4.629009e-01 -2.763226e+00 226 228 229
7.619703e-02 -4.629009e-01 -2.763226e+00 226 228 229
9.468272e-01 8.003620e-02 -3.154213e+00 208 213 202
9.841807e-01 9.211863e-02 -3.162274e+00 199 202 197
1.657730e-01 5.783963e-01 -2.744336e+00 99 91 71
6.368606e-01 6.033139e-01 -2.822312e+00 139 143 127
-8.212156e-02 -8.925891e-01 -2.747229e+00 155 127 2
-2.646958e-02 -4.321424e-01 -2.718034e+00 29 30 29
-2.646958e-02 -4.321424e-01 -2.718034e+00 29 30 29
1.798697e-02 -3.167054e-01 -2.704579e+00 65 26 18
3.780130e-01 -6.290757e-02 -3.137183e+00 58 103 27
7.497752e-01 1.550458e-01 -2.981651e+00 154 162 151
-4.093438e-01 -1.134719e-01 -2.609604e+00 186 87 118
-1.475673e-01 -4.063255e-01 -2.673398e+00 32 32 37
-7.957724e-01 7.915679e-02 -2.531208e+00 186 160 144
9.743417e-01 5.705430e-01 -3.110790e+00 127 91 79
1.909030e-01 6.613568e-01 -2.695452e+00 211 222 221
-4.512021e-02 -1.333702e+00 -2.448945e+00 121 117 114
5.149898e-01 -1.152653e+00 -2.615311e+00 151 158 145
1.200940e-01 -6.256363e-01 -2.829238e+00 50 13 7
1.200940e-01 -6.256363e-01 -2.829238e+00 50 13 7
4.840170e-01 1.621931e-01 -3.164609e+00 194 228 85
4.840170e-01 1.621931e-01 -3.164609e+00 194 228 85
1.063679e+00 7.847317e-01 -3.178462e+00 190 189 193
-2.042237e-02 -4.636362e-01 -2.732984e+00 14 17 21
9.762734e-01 9.143426e-02 -3.199873e+00 105 73 64
-8.282162e-01 1.257610e-01 -2.471275e+00 205 125 142
4.985365e-01 5.168797e-01 -2.865450e+00 218 241 239
1.053693e-01 -6.123312e-01 -2.822283e+00 188 147 143
-1.116320e-02 -4.486217e-01 -2.729162e+00 222 224 219
-7.420764e-01 -1.652918e-01 -2.597206e+00 154 166 177
2.549988e-01 6.878797e-01 -2.715549e+00 196 212 204
-3.641103e-02 -3.933629e-01 -2.705963e+00 39 34 31
3.723214e-03 -3.375065e-01 -2.700165e+00 47 17 19
-1.488007e-01 -3.667954e-01 -2.657626e+00 38 31 26
5.410161e-02 -3.324999e-01 -2.715171e+00 89 1 0
2.252821e-01 4.579247e-02 6.904142e-01 0 255 0
2.223789e-01 4.619323e-02 6.405001e-01 255 255 0
2.132716e-01 1.450872e+00 2.692688e-01 255 0 0
2.079377e-01 1.431534e+00 2.234690e-01 255 255 0
-3.281371e-01 -1.195765e+00 4.751243e-01 0 255 0
-3.245446e-01 -1.180986e+00 4.274935e-01 255 255 0
6.923789e-01 -9.321105e-01 2.504441e-01 255 0 0
6.818065e-01 -9.201910e-01 2.030506e-01 255 255 0
2.196066e+00 -1.024586e+00 2.104222e-01 0 255 0
2.167796e+00 -1.012957e+00 1.708554e-01 255 255 0
1.031408e+00 -2.193366e+00 -8.413758e-01 255 0 0
1.015278e+00 -2.160834e+00 -8.757480e-01 255 255 0
-1.515876e+00 -8.078207e-01 2.643990e-02 0 255 0
-1.498650e+00 -7.976188e-01 -1.937695e-02 255 255 0
2.431992e-01 -2.280816e+00 -7.328083e-01 255 0 0
2.328499e-01 -2.249455e+00 -7.703496e-01 255 255 0
2.853007e+00 -2.466974e-01 -7.885040e-01 0 255 0
2.813278e+00 -2.465158e-01 -8.188608e-01 255 255 0
