ply
format ascii 1.0
element face 0
property list uchar int vertex_indices
element vertex 427
property float x
property float y
property float z
property uchar diffuse_red
property uchar diffuse_green
property uchar diffuse_blue
end_header
-4.729879e-01 -3.586327e-01 -2.689070e+00 100 179 115
-1.454428e-01 -8.623828e-01 -2.750286e+00 227 230 74
-4.950358e-01 -5.003836e-01 -2.737955e+00 31 27 24
-4.474726e-01 -5.566977e-01 -2.770472e+00 100 164 102
-5.232250e-01 -4.086078e-01 -2.683941e+00 36 38 33
-1.660118e-01 -3.205446e-01 -2.625417e+00 207 206 203
-1.242106e-01 -3.131963e-01 -2.646038e+00 213 217 214
-1.001714e-01 -2.589846e-01 -2.643279e+00 113 67 40
7.232942e-01 3.821061e-01 -2.943088e+00 211 227 226
-1.220630e-01 -4.399162e-01 -2.686230e+00 207 210 203
-4.484985e-01 -2.597966e-01 -2.688475e+00 54 78 64
-7.503360e-01 -2.328877e-01 -2.611806e+00 103 173 181
-7.556949e-01 -1.851864e-01 -2.591838e+00 101 169 182
-5.106565e-01 -6.027541e-01 -2.751735e+00 88 154 97
-1.424772e-01 -4.886939e-01 -2.696591e+00 31 28 28
8.131828e-03 -4.565549e-01 -2.737630e+00 27 24 29
-8.929916e-02 -4.370342e-01 -2.697649e+00 25 24 24
-1.246401e-01 -3.807146e-01 -2.669658e+00 209 211 208
-5.999121e-02 -3.748327e-01 -2.688239e+00 207 208 199
9.554388e-01 4.103954e-02 -3.195800e+00 203 212 205
2.269938e+00 -1.335090e+00 -5.255574e+00 132 122 127
-4.530336e-01 -1.039285e+00 -2.613522e+00 32 35 40
1.205313e-01 -6.298766e-01 -2.833329e+00 56 9 2
6.712852e-02 -6.237375e-01 -2.808819e+00 166 126 127
-7.655348e-01 -4.957628e-01 -2.694843e+00 128 171 174
-5.559017e-02 -5.311858e-01 -2.741562e+00 209 212 205
2.630644e-02 -5.191490e-01 -2.764756e+00 210 211 208
-1.142469e-01 -4.732730e-01 -2.702969e+00 19 19 24
-1.142469e-01 -4.732730e-01 -2.702969e+00 19 19 24
1.115396e-01 -4.469611e-01 -2.770868e+00 38 21 22
4.951371e-02 -4.214740e-01 -2.743774e+00 33 29 32
4.951371e-02 -4.214740e-01 -2.743774e+00 33 29 32
-1.475083e-01 -4.107978e-01 -2.664956e+00 34 34 36
-5.094874e-01 -3.435360e-01 -2.675385e+00 54 99 66
3.377328e-02 -3.392606e-01 -2.705054e+00 244 44 38
1.004715e-01 -3.137659e-01 -2.719195e+00 63 7 1
2.490647e-01 4.599098e-01 -2.779288e+00 182 211 220
-1.398473e-01 -6.644813e-01 -2.761042e+00 31 21 0
-1.398473e-01 -6.644813e-01 -2.761042e+00 31 21 0
-7.487472e-01 -5.117200e-01 -2.706853e+00 147 33 69
-1.315337e-01 -4.667282e-01 -2.696035e+00 210 209 202
8.110484e-02 -4.481262e-01 -2.760777e+00 25 21 25
8.110484e-02 -4.481262e-01 -2.760777e+00 25 21 25
-1.328059e-01 -4.197704e-01 -2.674045e+00 213 215 208
3.020749e-02 -3.990224e-01 -2.722174e+00 216 224 217
6.742615e-02 -3.937501e-01 -2.732680e+00 223 223 222
9.472356e-02 -3.900359e-01 -2.740720e+00 220 225 217
1.311973e-02 -3.683514e-01 -2.711102e+00 238 38 34
4.243772e-02 -3.656919e-01 -2.719771e+00 237 39 35
-4.946657e-01 -2.221864e-01 -2.641525e+00 68 89 79
-3.745338e-03 -4.778806e-01 -2.734568e+00 217 218 216
-3.858548e-01 -1.805375e-01 -2.686149e+00 204 216 208
1.089385e+00 2.460319e-01 -3.228359e+00 62 54 55
-4.467383e-01 -5.566035e-01 -2.769583e+00 100 164 102
-5.492029e-02 -4.313501e-01 -2.707439e+00 144 144 142
-5.336904e-01 -3.269116e-01 -2.658381e+00 78 158 113
-1.726586e-01 -5.122218e-01 -2.709880e+00 203 202 195
1.089157e+00 2.468965e-01 -3.228184e+00 62 54 55
1.959241e+00 -9.018844e-01 -5.674861e+00 128 117 120
1.905614e+00 -7.648380e-01 -5.821462e+00 140 130 133
1.905614e+00 -7.648380e-01 -5.821462e+00 140 130 133
2.023548e+00 -6.567443e-01 -5.927485e+00 133 122 128
2.779545e-01 4.873224e-01 -2.776082e+00 217 247 254
1.921284e+00 -1.114127e+00 -5.464469e+00 80 74 79
1.856955e+00 -7.851696e-01 -5.795544e+00 92 77 80
-3.304430e-01 -9.306637e-01 -2.680792e+00 28 79 153
-3.304430e-01 -9.306637e-01 -2.680792e+00 28 79 153
5.229645e-02 -8.830117e-01 -2.739237e+00 212 233 126
2.769007e-01 5.082401e-01 -2.778660e+00 21 50 52
-4.877361e-01 -2.750837e-01 -2.668302e+00 62 85 67
-7.992047e-01 -1.829817e-01 -2.574680e+00 138 147 165
-3.507678e-03 -5.245880e-01 -2.757201e+00 218 220 218
-7.379852e-01 -6.367984e-01 -2.754133e+00 113 35 38
-7.691902e-01 1.730118e-02 -2.517476e+00 181 136 130
1.009716e+00 8.278404e-01 -3.117617e+00 208 217 216
-2.432617e-02 -8.796789e-01 -2.759771e+00 234 237 74
-1.491952e-01 -8.656140e-01 -2.756778e+00 227 230 74
-9.736687e-02 -2.585642e-01 -2.642860e+00 113 67 40
7.047749e-01 -3.547202e-01 -3.550535e+00 122 123 123
-1.708945e-01 -3.202225e-01 -2.625483e+00 207 206 203
-6.820322e-01 -1.639881e-01 -2.625593e+00 128 158 170
6.602618e-01 4.660363e-02 -3.157756e+00 67 116 50
-1.763291e-01 -9.947798e-01 -2.683966e+00 87 94 94
-1.479573e-01 2.986692e-01 -2.776960e+00 64 190 226
-5.105244e-01 -6.645626e-01 -2.768291e+00 30 58 39
-8.803914e-02 3.115515e-01 -2.798751e+00 230 110 152
-1.723667e-01 -1.049945e+00 -2.631147e+00 24 60 49
-2.177669e-01 -9.399838e-01 -2.746718e+00 25 70 43
-3.419459e-01 -9.164877e-01 -2.685796e+00 193 211 214
1.922334e+00 -1.205213e+00 -5.378761e+00 131 128 132
6.252170e-01 -6.355932e-01 -3.007570e+00 37 63 16
-5.095905e-01 -3.445489e-01 -2.678759e+00 54 99 66
-1.361542e-01 -2.812684e-01 -2.630246e+00 114 64 37
-1.736840e-01 -1.530241e-01 -2.783486e+00 201 200 180
1.706995e-02 -6.585293e-03 -2.868667e+00 41 15 18
2.118537e+00 -8.371990e-02 -6.518631e+00 96 94 99
6.826010e-01 3.687848e-01 -2.970773e+00 115 128 103
-1.554809e-01 4.267771e-01 -2.880187e+00 215 242 198
4.974153e-01 5.505359e-01 -2.844286e+00 41 53 63
-1.963938e-01 -1.013669e+00 -2.659054e+00 40 42 44
1.991616e+00 -1.640660e+00 -4.921614e+00 94 75 73
-1.816793e-01 -9.400171e-01 -2.738342e+00 28 61 38
2.021647e+00 -1.560292e+00 -5.003002e+00 148 132 134
2.076249e+00 -1.523903e+00 -5.050884e+00 140 138 144
2.213850e+00 -1.514489e+00 -5.058995e+00 81 63 71
2.019003e+00 -1.479249e+00 -5.091966e+00 137 130 139
1.801528e+00 -1.459045e+00 -5.100629e+00 150 138 144
2.139931e+00 -1.423679e+00 -5.149313e+00 128 119 123
1.950711e+00 -1.259356e+00 -5.323631e+00 99 89 87
2.205597e+00 -8.929821e-01 -5.715778e+00 83 65 62
2.159589e+00 -7.821619e-01 -5.823937e+00 86 74 77
2.159589e+00 -7.821619e-01 -5.823937e+00 86 74 77
2.040353e+00 -6.909566e-01 -5.919672e+00 86 71 71
2.040353e+00 -6.909566e-01 -5.919672e+00 86 71 71
2.059533e+00 -3.289469e-01 -6.247061e+00 110 110 111
9.107706e-01 -7.258604e-02 -3.277010e+00 100 101 90
7.414132e-01 2.805583e-01 -2.963711e+00 204 224 224
1.856752e+00 -1.692284e+00 -4.858058e+00 96 80 85
-4.403129e-01 -1.004840e+00 -2.655347e+00 34 71 51
1.736190e+00 -1.622036e+00 -4.918467e+00 99 83 85
1.833482e+00 -1.586776e+00 -4.952412e+00 90 79 81
-3.088925e-01 -9.312443e-01 -2.674025e+00 20 78 160
2.123651e+00 -1.527143e+00 -5.047157e+00 88 75 79
7.844834e-02 -8.835642e-01 -2.736369e+00 216 238 122
5.267338e-02 -8.811022e-01 -2.736117e+00 212 233 126
2.274061e+00 -1.511036e+00 -5.078559e+00 81 72 77
1.774686e+00 -1.047196e+00 -5.529998e+00 127 113 115
2.234368e+00 -1.051912e+00 -5.541247e+00 85 73 75
1.904978e+00 -9.721439e-01 -5.605843e+00 128 119 126
2.047448e+00 -9.198046e-01 -5.672337e+00 80 57 57
-7.391878e-02 -4.595009e-01 -2.714240e+00 213 213 213
1.949406e+00 -8.779874e-01 -5.722431e+00 131 119 122
2.201275e+00 -3.603586e-01 -6.261305e+00 113 107 114
-2.934891e-01 -5.452756e-02 -2.785528e+00 134 94 119
2.105204e+00 3.080353e-03 -6.609873e+00 80 76 77
2.394065e+00 2.155291e-01 -6.837677e+00 49 42 43
2.773572e-01 5.077516e-01 -2.781805e+00 21 50 52
-6.786257e-02 -7.867282e-01 -2.774176e+00 221 198 54
-2.938888e-01 -7.328946e-01 -2.713921e+00 23 23 16
-5.583908e-01 3.038543e-01 -2.594210e+00 220 225 227
-6.951138e-01 -5.933318e-01 -2.728994e+00 183 165 141
1.137321e+00 5.461651e-01 -3.175041e+00 21 21 23
-8.268790e-02 -6.009301e-01 -2.762032e+00 17 17 15
7.568651e-01 2.161752e-01 -2.950657e+00 201 219 218
-6.757722e-01 -7.549516e-01 -2.823935e+00 71 148 161
-5.035394e-01 -7.076531e-01 -2.791513e+00 97 164 100
-5.035394e-01 -7.076531e-01 -2.791513e+00 97 164 100
3.088755e-01 -6.786807e-01 -2.957835e+00 116 181 93
6.815549e-01 -6.739681e-01 -2.988855e+00 113 183 95
-3.770474e-01 -2.734920e-01 -2.699877e+00 15 15 14
1.160888e-01 7.321280e-01 -2.805442e+00 117 123 122
2.899057e-01 -9.160278e-01 -2.766478e+00 242 252 94
3.205684e-01 -8.564970e-01 -2.756511e+00 25 23 18
-4.648715e-01 -4.016868e-01 -2.713156e+00 90 175 120
6.385212e-01 5.041425e-01 -2.934970e+00 197 217 209
-8.699073e-02 6.864984e-01 -2.786705e+00 147 143 137
-7.515767e-01 -9.099279e-01 -2.917114e+00 114 121 128
6.783637e-01 -7.905308e-01 -2.886518e+00 14 18 12
7.275761e-01 -9.157337e-03 -3.115129e+00 109 179 90
-7.666684e-01 6.679816e-01 -2.629628e+00 157 151 150
-2.996264e+00 3.252399e+00 -9.059168e+00 69 44 43
-2.642732e-01 -8.967296e-01 -2.804568e+00 111 112 107
7.016389e-01 -8.865139e-01 -2.916670e+00 21 17 14
-4.697816e-01 -7.570435e-01 -2.816777e+00 30 41 26
-9.944662e-03 -5.064093e-01 -2.743635e+00 126 127 124
8.269491e-02 -4.942297e-01 -2.776236e+00 217 215 212
-4.417788e-01 -2.265768e-01 -2.676198e+00 150 166 158
8.763057e-01 -4.699037e-02 -3.259532e+00 55 41 28
9.074267e-01 -1.106365e-02 -3.222083e+00 176 181 174
6.060886e-01 1.295654e-01 -3.157035e+00 81 137 68
-2.804694e-01 4.991061e-01 -2.735423e+00 61 49 40
-2.728216e-01 5.917601e-01 -2.740869e+00 198 200 194
-2.658410e-01 6.444198e-01 -2.743660e+00 151 150 145
-1.414875e-01 -1.061346e+00 -2.625004e+00 184 204 207
-1.429706e-01 -9.715258e-01 -2.705430e+00 41 48 47
1.040235e+00 -9.349036e-01 -2.873699e+00 60 32 14
-2.149994e-01 -9.012185e-01 -2.788096e+00 34 28 16
-5.283859e-01 -7.821276e-01 -2.800791e+00 95 154 92
-1.660584e-01 -5.709993e-01 -2.716707e+00 207 181 39
-1.728987e-01 -5.121753e-01 -2.710890e+00 203 202 195
-1.729753e-01 -3.964637e-01 -2.658659e+00 205 206 201
-1.462254e-01 -3.575671e-01 -2.652092e+00 128 126 128
5.290790e-02 -3.191325e-01 -2.704822e+00 92 1 0
-5.829114e-01 -2.581797e-01 -2.614976e+00 73 93 72
-4.551880e-01 -2.631505e-01 -2.678510e+00 57 78 65
-6.970917e-01 5.399016e-02 -2.546973e+00 181 206 156
-5.331127e-01 1.162038e-01 -2.668265e+00 221 78 134
-9.254204e-01 2.714105e-01 -2.631070e+00 113 92 92
6.086066e-01 6.107570e-01 -2.863050e+00 91 100 79
1.068045e+00 7.844378e-01 -3.111060e+00 198 201 205
-1.475149e-01 -5.321086e-01 -2.709246e+00 53 12 6
-5.030636e-02 -4.682409e-01 -2.717461e+00 27 29 33
-8.938363e-02 -4.369366e-01 -2.698276e+00 25 24 24
2.612347e-02 -4.363514e-01 -2.742612e+00 210 213 210
-7.744978e-02 -4.062325e-01 -2.689041e+00 25 26 24
-3.393625e-02 -4.001475e-01 -2.701197e+00 29 29 27
-3.393625e-02 -4.001475e-01 -2.701197e+00 29 29 27
-2.225497e-02 -3.470701e-01 -2.690441e+00 215 214 213
5.386800e-03 -3.393014e-01 -2.698717e+00 33 25 20
5.294218e-03 -3.389550e-01 -2.697799e+00 33 25 20
-4.063637e-01 -1.950665e-01 -2.681993e+00 58 72 62
9.547710e-01 4.185963e-02 -3.199503e+00 203 212 205
-1.363357e-02 7.480943e-02 -2.881614e+00 120 201 214
9.098483e-01 7.119737e-02 -3.184521e+00 197 207 199
9.420999e-01 7.615608e-02 -3.180100e+00 74 62 46
7.477368e-01 3.057847e-01 -2.970241e+00 102 105 88
-8.311518e-01 3.575576e-01 -2.585619e+00 151 140 143
2.763664e-01 -8.521594e-01 -2.756964e+00 131 135 124
6.871810e-01 -8.536694e-01 -2.907188e+00 127 141 136
-7.411771e-01 -7.685631e-01 -2.794177e+00 168 74 97
-5.268786e-01 -6.326300e-01 -2.758048e+00 96 159 106
-9.040378e-02 -5.231436e-01 -2.723311e+00 207 210 203
1.104064e-01 -5.281826e-01 -2.809474e+00 34 12 12
8.765297e-02 -5.112578e-01 -2.780964e+00 213 215 211
1.133942e-01 -4.955793e-01 -2.787331e+00 41 14 9
1.129995e-01 -4.749398e-01 -2.777721e+00 41 12 7
6.142566e-02 -4.614136e-01 -2.754927e+00 20 22 22
6.175956e-02 -4.613665e-01 -2.756645e+00 20 22 22
1.088494e+00 -5.421942e-01 -3.358161e+00 32 27 22
-5.429331e-02 -4.139938e-01 -2.700995e+00 198 201 193
-1.174822e-01 -4.056407e-01 -2.677297e+00 28 31 33
-1.042885e-02 -4.078623e-01 -2.713321e+00 213 216 210
-1.042885e-02 -4.078623e-01 -2.713321e+00 213 216 210
1.104928e-01 -3.770846e-01 -2.742864e+00 44 10 6
-9.082389e-02 -3.552736e-01 -2.670860e+00 208 211 209
-9.078294e-02 -3.553218e-01 -2.670865e+00 208 211 209
-5.817902e-01 -3.459025e-01 -2.641668e+00 37 48 36
8.320597e-02 -3.539941e-01 -2.733277e+00 246 43 30
8.304246e-02 -3.533087e-01 -2.731196e+00 246 43 30
-3.102255e-02 -3.478244e-01 -2.683267e+00 209 214 209
3.347514e-02 -3.392095e-01 -2.705326e+00 244 44 38
8.129918e-02 -3.304940e-01 -2.722765e+00 243 42 33
8.113313e-02 -3.300678e-01 -2.720484e+00 243 42 33
1.005732e-01 -3.133347e-01 -2.722124e+00 63 7 1
-8.054801e-01 -1.218626e-01 -2.548423e+00 177 122 140
1.102330e+00 2.898223e-01 -3.254746e+00 55 51 53
6.823100e-01 4.853936e-01 -2.928091e+00 216 232 231
-7.988977e-01 5.608158e-01 -2.614926e+00 40 21 17
-8.183954e-01 5.971269e-01 -2.636867e+00 98 80 77
-1.085890e-01 7.205552e-01 -2.756207e+00 134 133 130
-1.085890e-01 7.205552e-01 -2.756207e+00 134 133 130
-1.196700e-01 -9.258458e-01 -2.767171e+00 51 35 3
2.191808e+00 -1.436442e+00 -5.129586e+00 81 76 77
-5.186903e-01 -8.140195e-01 -2.813927e+00 35 66 40
-7.206532e-01 -7.894603e-01 -2.803223e+00 146 24 52
1.587378e-01 -7.922788e-01 -2.897747e+00 193 63 29
-7.277566e-01 -7.129002e-01 -2.780862e+00 149 26 54
1.671634e+00 -1.224624e+00 -5.320309e+00 96 81 88
1.671634e+00 -1.224624e+00 -5.320309e+00 96 81 88
-5.392615e-01 -6.563613e-01 -2.762062e+00 111 164 112
8.488601e-02 -6.201396e-01 -2.819404e+00 163 125 122
-7.468231e-01 -5.124724e-01 -2.701597e+00 147 33 69
-4.551448e-02 -5.135583e-01 -2.739665e+00 28 27 23
-4.550022e-02 -5.132711e-01 -2.738927e+00 28 27 23
-9.354094e-02 -4.921486e-01 -2.717534e+00 214 212 206
3.948335e-02 -4.946925e-01 -2.764783e+00 30 28 28
3.948335e-02 -4.946925e-01 -2.764783e+00 30 28 28
-6.347218e-02 -4.871161e-01 -2.721451e+00 206 209 205
-6.347218e-02 -4.871161e-01 -2.721451e+00 206 209 205
-8.251972e-02 -4.781384e-01 -2.714005e+00 22 21 26
-8.251972e-02 -4.781384e-01 -2.714005e+00 22 21 26
1.814667e+00 -9.284603e-01 -5.645898e+00 128 126 131
2.408049e-02 -4.765975e-01 -2.745246e+00 214 215 208
-1.312673e-01 -4.667960e-01 -2.695748e+00 210 209 202
-1.864525e-02 -4.672702e-01 -2.731392e+00 13 17 19
-9.996346e-02 -4.613330e-01 -2.703723e+00 214 217 211
-9.996346e-02 -4.613330e-01 -2.703723e+00 214 217 211
-1.137765e-02 -4.502879e-01 -2.730756e+00 218 219 217
5.992306e-02 -4.418426e-01 -2.748079e+00 216 222 220
9.584232e-02 -4.346721e-01 -2.762789e+00 216 218 215
-1.022230e-01 -4.158368e-01 -2.686231e+00 215 222 216
2.995492e-02 -3.986676e-01 -2.724333e+00 216 224 217
-1.029968e-01 -3.866832e-01 -2.676286e+00 216 217 214
8.012596e-02 -3.779853e-01 -2.735767e+00 21 20 16
-3.315916e-02 -3.480459e-01 -2.685846e+00 209 212 208
1.018135e-01 -3.433509e-01 -2.736975e+00 110 0 0
1.018135e-01 -3.433509e-01 -2.736975e+00 110 0 0
2.810668e+00 -7.069916e-01 -5.952101e+00 56 53 56
7.718281e-01 5.576060e-02 -3.047920e+00 111 121 91
7.419018e-01 1.048248e-01 -3.012275e+00 164 181 163
7.508787e-01 1.346757e-01 -2.990168e+00 190 202 191
6.977842e-01 4.304060e-01 -2.937189e+00 169 180 166
-3.674505e-02 4.698049e-01 -2.786409e+00 160 151 142
-3.674505e-02 4.698049e-01 -2.786409e+00 160 151 142
2.284886e-01 4.653185e-01 -2.781919e+00 27 34 42
-6.911008e-02 5.134647e-01 -2.766127e+00 116 112 109
-7.856711e-01 5.079495e-01 -2.603785e+00 52 28 24
-2.845525e-01 5.537947e-01 -2.736676e+00 69 61 54
-2.784478e-01 6.396991e-01 -2.746514e+00 133 130 121
-7.710342e-01 6.962681e-01 -2.624204e+00 137 122 125
-3.036481e-01 -1.001454e+00 -2.669679e+00 15 16 13
-3.557221e-01 -9.393056e-01 -2.673383e+00 159 184 221
1.339213e-01 -9.088471e-01 -2.732949e+00 190 205 90
1.169157e-01 -9.057668e-01 -2.732317e+00 197 215 102
-4.301381e-01 -7.240782e-01 -2.825323e+00 93 136 91
-5.208743e-01 -6.484403e-01 -2.760206e+00 19 61 23
-6.128386e-02 -6.408827e-01 -2.775407e+00 174 121 115
-3.695955e-02 -6.364498e-01 -2.780561e+00 188 149 148
-1.483110e-02 -6.331410e-01 -2.785669e+00 170 133 129
-5.077602e-01 -6.260425e-01 -2.760333e+00 16 57 22
4.445850e-02 -6.248517e-01 -2.802729e+00 183 141 145
1.065894e-01 -6.167736e-01 -2.823287e+00 183 141 139
-1.080142e-01 -5.047800e-01 -2.715232e+00 17 15 13
-1.086156e-01 -5.048305e-01 -2.717386e+00 17 15 13
1.007761e-01 -5.104499e-01 -2.788323e+00 218 222 216
-7.505439e-01 -4.910883e-01 -2.694776e+00 22 100 120
1.707941e+00 -9.480314e-01 -5.594887e+00 92 77 79
-2.999974e-02 -4.818068e-01 -2.731702e+00 218 220 216
-4.127151e-03 -4.775107e-01 -2.737678e+00 217 218 216
-7.385134e-02 -4.591609e-01 -2.711864e+00 213 213 213
9.915530e-02 -4.624416e-01 -2.771021e+00 218 222 217
9.948254e-02 -4.624764e-01 -2.772811e+00 218 222 217
-3.346141e-02 -4.549484e-01 -2.723378e+00 219 215 217
4.334449e-02 -4.564953e-01 -2.750669e+00 19 15 18
4.334449e-02 -4.564953e-01 -2.750669e+00 19 15 18
1.814131e-03 -4.385216e-01 -2.732227e+00 13 15 11
1.814131e-03 -4.385216e-01 -2.732227e+00 13 15 11
2.418866e-02 -3.568718e-01 -2.710542e+00 91 2 0
-2.119960e-03 -3.557351e-01 -2.703265e+00 60 17 11
-1.528981e-01 -3.479164e-01 -2.646549e+00 17 17 16
-1.528981e-01 -3.479164e-01 -2.646549e+00 17 17 16
5.354370e-02 -3.520249e-01 -2.718529e+00 80 1 0
-1.290252e-02 -3.312875e-01 -2.686118e+00 222 220 215
4.784016e-01 -3.182752e-01 -2.621328e+00 100 173 76
1.946568e+00 -6.829105e-01 -5.895949e+00 133 121 125
5.214612e-02 -3.182011e-01 -2.707727e+00 81 2 0
-7.545376e-01 -3.047955e-01 -2.628696e+00 82 166 185
2.024271e+00 -6.563827e-01 -5.923149e+00 133 122 128
1.953081e+00 -6.537006e-01 -5.924123e+00 81 61 63
2.006839e+00 -5.540782e-01 -6.020236e+00 132 119 125
-7.669191e-01 -2.095525e-01 -2.588268e+00 72 166 196
-3.858675e-01 -1.807482e-01 -2.685197e+00 204 216 208
8.894572e-01 -2.703102e-02 -3.265059e+00 52 49 34
4.994121e-01 2.480550e-02 -3.157422e+00 39 87 4
1.019342e+00 4.911079e-02 -3.215759e+00 219 224 220
8.701709e-01 1.458924e-01 -3.146759e+00 75 70 62
1.061792e+00 2.451093e-01 -3.201322e+00 214 211 214
6.582695e-01 3.772118e-01 -2.978831e+00 135 152 133
6.817671e-01 4.169388e-01 -2.938793e+00 217 232 226
6.688129e-01 4.294290e-01 -2.943888e+00 158 175 158
-8.630499e-01 4.616445e-01 -2.654491e+00 81 68 68
-7.667848e-01 5.147574e-01 -2.595661e+00 131 114 108
6.513210e-01 5.898906e-01 -2.837915e+00 122 139 121
6.635736e-01 5.963395e-01 -2.826002e+00 190 208 195
1.204871e-01 -6.302340e-01 -2.832930e+00 77 25 9
-3.330737e-03 -5.248785e-01 -2.757544e+00 219 220 222
-1.845044e-01 -4.766211e-01 -2.744825e+00 169 124 98
-3.758934e-01 3.898653e-01 -2.755197e+00 233 238 241
-3.758934e-01 3.898653e-01 -2.755197e+00 233 238 241
5.664181e-02 -9.405465e-01 -2.751095e+00 77 59 18
4.492401e-01 2.997509e-01 -2.801661e+00 97 4 0
-1.271094e-01 4.637060e-01 -2.809868e+00 106 92 79
-4.908836e-01 -5.044465e-01 -2.723535e+00 44 41 41
-6.423325e-01 -2.187532e-01 -2.620572e+00 18 18 16
-1.213705e-01 5.820125e-01 -2.794812e+00 178 183 179
-4.908730e-01 -1.057434e+00 -2.598511e+00 29 37 37
-2.170426e-01 5.399562e-01 -2.768178e+00 186 191 181
-4.670247e-01 -6.317279e-01 -2.782484e+00 41 35 34
-5.327323e-01 -2.888343e-01 -2.629978e+00 77 90 72
-1.674722e-01 -2.685459e-01 -2.624640e+00 181 111 66
-1.674722e-01 -2.685459e-01 -2.624640e+00 181 111 66
-1.714644e-01 3.959996e-01 -2.871124e+00 235 243 247
-1.317152e-02 -8.842893e-01 -2.717518e+00 231 233 77
-4.141799e-01 -5.799231e-01 -2.771434e+00 29 21 18
-6.740194e-01 -1.667268e-01 -2.616619e+00 108 170 188
2.823880e-01 1.517720e-01 -2.837084e+00 28 54 17
-1.275082e-02 -1.031777e+00 -2.643517e+00 181 136 67
-1.275082e-02 -1.031777e+00 -2.643517e+00 181 136 67
1.072295e+00 -5.794368e-01 -3.432069e+00 109 103 95
-4.551375e-01 -1.941684e-01 -2.655675e+00 89 99 88
-4.417430e-01 -1.011097e-01 -2.722115e+00 180 178 189
-6.958608e-01 5.202827e-02 -2.542853e+00 189 209 173
-5.279697e-01 3.915553e-01 -3.022450e+00 93 184 215
3.072425e-01 2.356510e-01 -2.848704e+00 92 0 0
-6.440851e-01 2.309807e-01 -2.590549e+00 228 233 237
-1.961148e-01 3.748293e-01 -2.936684e+00 230 132 164
5.370389e-01 -1.141218e+00 -2.652378e+00 145 148 138
2.153650e-01 -1.080785e+00 -2.626699e+00 45 49 48
5.911434e-01 -1.112392e+00 -2.681764e+00 148 153 142
-6.895948e-02 -1.028281e+00 -2.647020e+00 46 51 54
1.207815e-01 -1.003587e+00 -2.680331e+00 42 51 52
-3.156964e-02 -9.604391e-01 -2.728724e+00 102 123 109
-5.183549e-01 -5.754347e-01 -2.745929e+00 45 40 40
-6.766554e-01 -3.673515e-01 -2.685635e+00 201 188 151
-6.936471e-01 -2.212983e-01 -2.629508e+00 208 110 131
-5.379385e-01 -1.060617e-01 -2.669515e+00 182 86 114
-3.829285e-01 -8.767064e-02 -2.743875e+00 179 195 207
-4.145602e-01 -7.264357e-02 -2.723939e+00 186 87 118
-4.629431e-01 4.117139e-01 -3.059086e+00 223 122 156
-7.046218e-01 3.329826e-01 -2.572179e+00 157 165 158
-1.775092e-01 5.663771e-01 -2.793770e+00 192 201 196
2.446093e-01 6.536725e-01 -2.809975e+00 158 167 162
2.080433e-01 6.487932e-01 -2.728921e+00 150 155 145
-5.131442e-01 -1.154381e+00 -2.518658e+00 91 116 111
6.743920e-01 -8.982555e-01 -2.902154e+00 147 152 142
-5.089404e-01 -6.700321e-01 -2.772150e+00 46 66 42
-1.740433e-01 -1.513689e-01 -2.788257e+00 203 201 179
4.515840e-01 2.688638e-01 -2.883790e+00 120 18 18
3.026891e-01 -1.191314e+00 -2.524898e+00 151 171 168
-1.187706e-01 -9.270058e-01 -2.758356e+00 43 33 9
2.238887e-02 -8.810508e-01 -2.741546e+00 39 42 6
2.556511e-02 -6.289584e-01 -2.797091e+00 183 135 133
2.556511e-02 -6.289584e-01 -2.797091e+00 183 135 133
-1.329323e-01 -4.191098e-01 -2.677183e+00 218 219 217
-4.799803e-01 -2.199764e-01 -2.335820e+00 155 195 197
-6.648371e-01 3.612702e-01 -2.553075e+00 230 230 234
-7.035145e-01 -8.099688e-01 -2.814440e+00 195 76 113
7.832240e-02 -8.849281e-01 -2.737592e+00 218 234 126
-4.533074e-01 -7.341835e-01 -2.818693e+00 95 130 88
1.037625e+00 -7.740528e-01 -2.765955e+00 109 144 63
2.649408e-03 -6.101519e-01 -2.844469e+00 25 19 16
-3.039585e-03 -5.250314e-01 -2.756795e+00 221 222 219
1.574873e-02 -4.094185e-01 -2.726831e+00 17 17 18
1.574873e-02 -4.094185e-01 -2.726831e+00 17 17 18
-1.463111e-01 -3.948589e-01 -2.658339e+00 211 214 214
-3.796218e-02 -3.777542e-01 -2.697696e+00 223 216 214
2.439763e-02 -3.569096e-01 -2.710410e+00 117 6 2
9.946087e-01 7.152768e-02 -3.195497e+00 211 209 201
9.556365e-01 7.761645e-02 -3.149938e+00 204 208 199
2.287680e-01 5.011935e-02 7.693216e-01 0 255 0
2.259045e-01 5.047603e-02 7.194049e-01 255 255 0
2.190871e-01 1.480639e+00 3.248598e-01 255 0 0
2.137698e-01 1.461254e+00 2.790786e-01 255 255 0
-3.386724e-01 -1.219136e+00 5.366819e-01 0 255 0
-3.349861e-01 -1.204302e+00 4.890755e-01 255 255 0
7.042800e-01 -9.498675e-01 3.000997e-01 255 0 0
6.937162e-01 -9.378711e-01 2.527237e-01 255 255 0
