ply
format ascii 1.0
element face 0
property list uchar int vertex_indices
element vertex 623
property float x
property float y
property float z
property uchar diffuse_red
property uchar diffuse_green
property uchar diffuse_blue
end_header
-4.750364e-01 -3.537758e-01 -2.696178e+00 100 179 115
-1.445129e-01 -8.587891e-01 -2.752781e+00 227 230 74
-4.923257e-01 -4.982418e-01 -2.739010e+00 31 27 24
-4.458798e-01 -5.546718e-01 -2.771374e+00 100 164 102
-5.208789e-01 -4.074301e-01 -2.687358e+00 36 38 33
-1.652854e-01 -3.186750e-01 -2.631529e+00 207 206 203
-1.239730e-01 -3.112931e-01 -2.649300e+00 213 217 214
-1.004919e-01 -2.575738e-01 -2.643294e+00 113 67 40
7.170999e-01 3.816245e-01 -2.945510e+00 211 227 226
-1.213495e-01 -4.360503e-01 -2.690389e+00 207 210 203
-4.466966e-01 -2.588415e-01 -2.691123e+00 54 78 64
-7.470638e-01 -2.334228e-01 -2.613123e+00 103 173 181
-7.522991e-01 -1.849409e-01 -2.594422e+00 101 169 182
-5.058721e-01 -5.993832e-01 -2.752132e+00 88 154 97
-1.417722e-01 -4.854808e-01 -2.699540e+00 31 28 28
7.797199e-03 -4.537344e-01 -2.738253e+00 27 24 29
-8.905294e-02 -4.344934e-01 -2.700447e+00 25 24 24
-1.244984e-01 -3.789645e-01 -2.669772e+00 209 211 208
-5.993985e-02 -3.724220e-01 -2.689807e+00 207 208 199
9.479450e-01 4.263624e-02 -3.198640e+00 203 212 205
2.279561e+00 -1.338369e+00 -5.271204e+00 132 122 127
-4.492832e-01 -1.033985e+00 -2.612427e+00 32 35 40
1.200018e-01 -6.251124e-01 -2.832325e+00 56 9 2
6.649801e-02 -6.197167e-01 -2.809890e+00 166 126 127
-7.616894e-01 -4.953184e-01 -2.694996e+00 128 171 174
-5.562511e-02 -5.273098e-01 -2.740797e+00 209 212 205
2.604427e-02 -5.154271e-01 -2.764622e+00 210 211 208
-1.135379e-01 -4.706615e-01 -2.703433e+00 19 19 24
-1.135379e-01 -4.706615e-01 -2.703433e+00 19 19 24
1.106137e-01 -4.434741e-01 -2.770425e+00 38 21 22
4.885584e-02 -4.181437e-01 -2.742038e+00 33 29 32
4.876405e-02 -4.182630e-01 -2.742715e+00 33 29 32
-1.474462e-01 -4.084276e-01 -2.671664e+00 34 34 36
-5.070809e-01 -3.426319e-01 -2.676932e+00 54 99 66
3.276109e-02 -3.369048e-01 -2.709765e+00 244 44 38
9.949822e-02 -3.114910e-01 -2.724578e+00 63 7 1
2.456132e-01 4.571252e-01 -2.781089e+00 182 211 220
-1.382803e-01 -6.598661e-01 -2.759153e+00 31 21 0
-1.381248e-01 -6.600387e-01 -2.759887e+00 31 21 0
-7.447289e-01 -5.102181e-01 -2.707599e+00 147 33 69
-1.308354e-01 -4.640825e-01 -2.695922e+00 210 209 202
7.992549e-02 -4.448204e-01 -2.760946e+00 25 21 25
8.002104e-02 -4.447044e-01 -2.760764e+00 25 21 25
-1.326576e-01 -4.171207e-01 -2.679244e+00 213 215 208
2.931322e-02 -3.964107e-01 -2.726534e+00 216 224 217
6.623606e-02 -3.911265e-01 -2.738162e+00 223 223 222
9.336463e-02 -3.874771e-01 -2.746788e+00 220 225 217
1.238480e-02 -3.658817e-01 -2.712279e+00 238 38 34
4.154056e-02 -3.630441e-01 -2.721556e+00 237 39 35
-4.932871e-01 -2.221330e-01 -2.648147e+00 68 89 79
-4.305772e-03 -4.756052e-01 -2.739418e+00 217 218 216
-3.843474e-01 -1.800427e-01 -2.688573e+00 204 216 208
1.087111e+00 2.465959e-01 -3.234188e+00 62 54 55
-4.443104e-01 -5.540497e-01 -2.768442e+00 100 164 102
-5.494013e-02 -4.307891e-01 -2.709083e+00 144 144 142
-5.290858e-01 -3.257081e-01 -2.660153e+00 78 158 113
-1.705261e-01 -5.105027e-01 -2.705909e+00 203 202 195
1.082381e+00 2.480503e-01 -3.230002e+00 62 54 55
1.962574e+00 -9.017254e-01 -5.687512e+00 128 117 120
1.908006e+00 -7.641967e-01 -5.834196e+00 140 130 133
1.908006e+00 -7.641967e-01 -5.834196e+00 140 130 133
2.026977e+00 -6.558043e-01 -5.942122e+00 133 122 128
2.739617e-01 4.850074e-01 -2.779129e+00 217 247 254
1.925022e+00 -1.114684e+00 -5.476191e+00 80 74 79
1.858904e+00 -7.845492e-01 -5.807622e+00 92 77 80
-3.276747e-01 -9.256471e-01 -2.680548e+00 28 79 153
-3.276747e-01 -9.256471e-01 -2.680548e+00 28 79 153
5.263420e-02 -8.773047e-01 -2.739125e+00 212 233 126
2.728814e-01 5.058059e-01 -2.781666e+00 21 50 52
-4.867211e-01 -2.748434e-01 -2.667185e+00 62 85 67
-7.957578e-01 -1.842948e-01 -2.577177e+00 138 147 165
-3.793050e-03 -5.209590e-01 -2.757889e+00 218 220 218
-7.355496e-01 -6.357181e-01 -2.755079e+00 113 35 38
-7.655228e-01 1.596628e-02 -2.520025e+00 181 136 130
1.002899e+00 8.266921e-01 -3.120384e+00 208 217 216
-2.364998e-02 -8.741414e-01 -2.759399e+00 234 237 74
-1.478500e-01 -8.604146e-01 -2.756319e+00 227 230 74
-9.735743e-02 -2.568548e-01 -2.645570e+00 113 67 40
7.001572e-01 -3.518204e-01 -3.549975e+00 122 123 123
-1.702604e-01 -3.182288e-01 -2.627965e+00 207 206 203
-6.787628e-01 -1.640328e-01 -2.627286e+00 128 158 170
6.550486e-01 4.773234e-02 -3.159084e+00 67 116 50
-1.743808e-01 -9.887357e-01 -2.682898e+00 87 94 94
-1.489192e-01 2.967660e-01 -2.779120e+00 64 190 226
-5.076722e-01 -6.613873e-01 -2.768070e+00 30 58 39
-8.943633e-02 3.096879e-01 -2.800853e+00 230 110 152
-1.701839e-01 -1.043401e+00 -2.629779e+00 24 60 49
-2.158726e-01 -9.345397e-01 -2.745818e+00 25 70 43
-3.392634e-01 -9.112952e-01 -2.684925e+00 193 211 214
1.926044e+00 -1.206065e+00 -5.389995e+00 131 128 132
6.217841e-01 -6.309753e-01 -3.008266e+00 37 63 16
-5.070413e-01 -3.431289e-01 -2.680081e+00 54 99 66
-1.358281e-01 -2.794732e-01 -2.632895e+00 114 64 37
-1.736900e-01 -1.521877e-01 -2.785368e+00 201 200 180
1.548355e-02 -6.313985e-03 -2.870507e+00 41 15 18
2.122943e+00 -7.968437e-02 -6.537757e+00 96 94 99
6.768057e-01 3.682137e-01 -2.973390e+00 115 128 103
-1.567929e-01 4.242109e-01 -2.881299e+00 215 242 198
4.921784e-01 5.484689e-01 -2.847179e+00 41 53 63
-1.942297e-01 -1.007483e+00 -2.657864e+00 40 42 44
1.999007e+00 -1.644900e+00 -4.934582e+00 94 75 73
-1.799568e-01 -9.344530e-01 -2.737499e+00 28 61 38
2.028738e+00 -1.563898e+00 -5.015899e+00 148 132 134
2.083779e+00 -1.527460e+00 -5.064262e+00 140 138 144
2.223325e+00 -1.518664e+00 -5.073816e+00 81 63 71
2.025440e+00 -1.482163e+00 -5.104608e+00 137 130 139
1.805386e+00 -1.460980e+00 -5.111148e+00 150 138 144
2.147577e+00 -1.426667e+00 -5.163043e+00 128 119 123
1.954989e+00 -1.260567e+00 -5.335182e+00 99 89 87
2.211499e+00 -8.928683e-01 -5.730410e+00 83 65 62
2.164591e+00 -7.814399e-01 -5.838315e+00 86 74 77
2.164591e+00 -7.814399e-01 -5.838315e+00 86 74 77
2.043727e+00 -6.897275e-01 -5.932949e+00 86 71 71
2.043727e+00 -6.897275e-01 -5.932949e+00 86 71 71
2.062836e+00 -3.261705e-01 -6.262478e+00 110 110 111
9.050893e-01 -7.048013e-02 -3.278252e+00 100 101 90
7.355605e-01 2.805497e-01 -2.966536e+00 204 224 224
1.862920e+00 -1.696317e+00 -4.869924e+00 96 80 85
-4.368819e-01 -9.994154e-01 -2.653888e+00 34 71 51
1.740511e+00 -1.624885e+00 -4.928936e+00 99 83 85
1.838536e+00 -1.589728e+00 -4.963541e+00 90 79 81
-3.063226e-01 -9.258419e-01 -2.673139e+00 20 78 160
2.131886e+00 -1.530981e+00 -5.061077e+00 88 75 79
7.860686e-02 -8.777282e-01 -2.736132e+00 216 238 122
5.297115e-02 -8.753283e-01 -2.735867e+00 212 233 126
2.284484e+00 -1.515531e+00 -5.094160e+00 81 72 77
1.776305e+00 -1.047038e+00 -5.539665e+00 127 113 115
2.241231e+00 -1.052714e+00 -5.555870e+00 85 73 75
1.907556e+00 -9.718729e-01 -5.616780e+00 128 119 126
2.051421e+00 -9.195423e-01 -5.684953e+00 80 57 57
-7.326970e-02 -4.551400e-01 -2.712540e+00 213 213 213
1.952178e+00 -8.774162e-01 -5.734065e+00 131 119 122
2.206495e+00 -3.576872e-01 -6.278895e+00 113 107 114
-2.929609e-01 -5.451346e-02 -2.787266e+00 134 94 119
2.109640e+00 7.581889e-03 -6.630037e+00 80 76 77
2.403898e+00 2.221019e-01 -6.867085e+00 49 42 43
2.734092e-01 5.053661e-01 -2.784676e+00 21 50 52
-6.715716e-02 -7.818830e-01 -2.774677e+00 221 198 54
-2.918667e-01 -7.288285e-01 -2.715066e+00 23 23 16
-5.569722e-01 3.012647e-01 -2.597628e+00 220 225 227
-6.916031e-01 -5.890782e-01 -2.732893e+00 183 165 141
1.129911e+00 5.460898e-01 -3.176600e+00 21 21 23
-8.027366e-02 -5.975411e-01 -2.754626e+00 17 17 15
7.506127e-01 2.163847e-01 -2.952568e+00 201 219 218
-6.719847e-01 -7.521837e-01 -2.823539e+00 71 148 161
-4.997436e-01 -7.040431e-01 -2.789341e+00 97 164 100
-4.987097e-01 -7.032185e-01 -2.792943e+00 97 164 100
3.067811e-01 -6.739924e-01 -2.957455e+00 116 181 93
6.773843e-01 -6.689106e-01 -2.988426e+00 113 183 95
-3.754601e-01 -2.723269e-01 -2.702407e+00 15 15 14
1.124594e-01 7.285089e-01 -2.807767e+00 117 123 122
2.886893e-01 -9.098034e-01 -2.766467e+00 242 252 94
3.190082e-01 -8.504966e-01 -2.756731e+00 25 23 18
-4.625729e-01 -4.009160e-01 -2.714947e+00 90 175 120
6.325272e-01 5.026454e-01 -2.937279e+00 197 217 209
-8.943103e-02 6.828556e-01 -2.789797e+00 147 143 137
-7.476688e-01 -9.070708e-01 -2.915894e+00 114 121 128
6.745529e-01 -7.847339e-01 -2.886323e+00 14 18 12
7.217671e-01 -7.761179e-03 -3.116136e+00 109 179 90
-7.656218e-01 6.635476e-01 -2.631945e+00 157 151 150
-3.086060e+00 3.327069e+00 -9.227350e+00 69 44 43
-2.622870e-01 -8.919335e-01 -2.804712e+00 111 112 107
6.980347e-01 -8.803390e-01 -2.916120e+00 21 17 14
-4.677927e-01 -7.536338e-01 -2.816803e+00 30 41 26
-1.034214e-02 -5.032713e-01 -2.746569e+00 126 127 124
8.162765e-02 -4.908027e-01 -2.776904e+00 217 215 212
-4.398115e-01 -2.258483e-01 -2.678770e+00 150 166 158
8.700322e-01 -4.515794e-02 -3.260001e+00 55 41 28
9.036228e-01 -7.472603e-03 -3.238293e+00 176 181 174
6.006190e-01 1.300567e-01 -3.158474e+00 81 137 68
-2.813331e-01 4.960647e-01 -2.738667e+00 61 49 40
-2.751912e-01 5.917928e-01 -2.746858e+00 198 200 194
-2.671735e-01 6.406811e-01 -2.746832e+00 151 150 145
-1.395852e-01 -1.055198e+00 -2.625616e+00 184 204 207
-1.413457e-01 -9.658780e-01 -2.705825e+00 41 48 47
1.035755e+00 -9.285510e-01 -2.873698e+00 60 32 14
-2.132542e-01 -8.962374e-01 -2.788345e+00 34 28 16
-5.251167e-01 -7.786597e-01 -2.801039e+00 95 154 92
-1.655208e-01 -5.654444e-01 -2.720837e+00 207 181 39
-1.687184e-01 -5.099386e-01 -2.700380e+00 203 202 195
-1.720943e-01 -3.940873e-01 -2.660232e+00 205 206 201
-1.452015e-01 -3.549759e-01 -2.654112e+00 128 126 128
5.115095e-02 -3.157461e-01 -2.709754e+00 92 1 0
-5.806139e-01 -2.572146e-01 -2.620925e+00 73 93 72
-4.524782e-01 -2.621084e-01 -2.678702e+00 57 78 65
-6.941512e-01 5.253312e-02 -2.550044e+00 181 206 156
-5.308816e-01 1.191340e-01 -2.673895e+00 221 78 134
-9.223224e-01 2.684337e-01 -2.633290e+00 113 92 92
6.026849e-01 6.085307e-01 -2.865321e+00 91 100 79
1.060674e+00 7.832756e-01 -3.112543e+00 198 201 205
-1.459151e-01 -5.291869e-01 -2.710433e+00 53 12 6
-5.036611e-02 -4.651026e-01 -2.721878e+00 27 29 33
-8.907232e-02 -4.343930e-01 -2.700627e+00 25 24 24
2.608587e-02 -4.335253e-01 -2.735433e+00 210 213 210
-7.780637e-02 -4.033236e-01 -2.693410e+00 25 26 24
-3.450339e-02 -3.973945e-01 -2.705527e+00 29 29 27
-3.450339e-02 -3.973945e-01 -2.705527e+00 29 29 27
-2.245538e-02 -3.446739e-01 -2.694536e+00 215 214 213
4.602716e-03 -3.368000e-01 -2.702059e+00 33 25 20
4.560959e-03 -3.366463e-01 -2.702980e+00 33 25 20
-4.047390e-01 -1.944415e-01 -2.684762e+00 58 72 62
9.467955e-01 4.330582e-02 -3.199253e+00 203 212 205
-1.535022e-02 7.460608e-02 -2.884513e+00 120 201 214
9.034266e-01 7.270458e-02 -3.185876e+00 197 207 199
9.355650e-01 7.769364e-02 -3.181414e+00 74 62 46
7.416659e-01 3.055074e-01 -2.973109e+00 102 105 88
-8.287325e-01 3.544979e-01 -2.588322e+00 151 140 143
2.750724e-01 -8.462495e-01 -2.757203e+00 131 135 124
6.835320e-01 -8.476212e-01 -2.906751e+00 127 141 136
-7.366711e-01 -7.658392e-01 -2.792662e+00 168 74 97
-5.235528e-01 -6.306366e-01 -2.756182e+00 96 159 106
-9.010654e-02 -5.196367e-01 -2.726377e+00 207 210 203
1.118058e-01 -5.244194e-01 -2.796172e+00 34 12 12
8.707766e-02 -5.077723e-01 -2.781499e+00 213 215 211
1.137013e-01 -4.914367e-01 -2.784153e+00 41 14 9
1.118484e-01 -4.712741e-01 -2.781393e+00 41 12 7
5.989506e-02 -4.569285e-01 -2.760051e+00 20 22 22
6.091192e-02 -4.580435e-01 -2.758192e+00 20 22 22
1.082869e+00 -5.379792e-01 -3.357360e+00 32 27 22
-5.487198e-02 -4.107845e-01 -2.704108e+00 198 201 193
-1.175852e-01 -4.028852e-01 -2.681736e+00 28 31 33
-1.125377e-02 -4.038067e-01 -2.715769e+00 213 216 210
-1.126389e-02 -4.039958e-01 -2.718197e+00 213 216 210
1.085562e-01 -3.740009e-01 -2.750033e+00 44 10 6
-9.073848e-02 -3.529743e-01 -2.673281e+00 208 211 209
-9.080065e-02 -3.541816e-01 -2.673546e+00 208 211 209
-5.788285e-01 -3.447266e-01 -2.644121e+00 37 48 36
8.236904e-02 -3.526618e-01 -2.731218e+00 246 43 30
8.241393e-02 -3.506987e-01 -2.730678e+00 246 43 30
-3.275158e-02 -3.457013e-01 -2.688232e+00 209 214 209
3.226063e-02 -3.365560e-01 -2.709833e+00 244 44 38
8.005788e-02 -3.279370e-01 -2.724525e+00 243 42 33
8.001836e-02 -3.274686e-01 -2.724069e+00 243 42 33
9.920179e-02 -3.105953e-01 -2.726189e+00 63 7 1
-8.029662e-01 -1.228624e-01 -2.552455e+00 177 122 140
1.087170e+00 2.867155e-01 -3.230803e+00 55 51 53
6.760088e-01 4.841475e-01 -2.929717e+00 216 232 231
-7.973622e-01 5.568062e-01 -2.617505e+00 40 21 17
-8.170066e-01 5.929895e-01 -2.639278e+00 98 80 77
-1.109055e-01 7.143192e-01 -2.757697e+00 134 133 130
-1.101971e-01 7.159643e-01 -2.760575e+00 134 133 130
-1.183601e-01 -9.204713e-01 -2.767394e+00 51 35 3
2.200902e+00 -1.440068e+00 -5.143111e+00 81 76 77
-5.155148e-01 -8.100990e-01 -2.814406e+00 35 66 40
-7.169466e-01 -7.866591e-01 -2.804008e+00 146 24 52
1.578956e-01 -7.871375e-01 -2.897418e+00 193 63 29
-7.235481e-01 -7.110272e-01 -2.780507e+00 149 26 54
1.673821e+00 -1.225017e+00 -5.330042e+00 96 81 88
1.673821e+00 -1.225017e+00 -5.330042e+00 96 81 88
-5.349749e-01 -6.536682e-01 -2.758366e+00 111 164 112
8.434149e-02 -6.158994e-01 -2.816699e+00 163 125 122
-7.438517e-01 -5.108477e-01 -2.705773e+00 147 33 69
-4.516656e-02 -5.108898e-01 -2.737373e+00 28 27 23
-4.501128e-02 -5.103731e-01 -2.737180e+00 28 27 23
-9.316694e-02 -4.892843e-01 -2.716789e+00 214 212 206
3.929377e-02 -4.915737e-01 -2.762825e+00 30 28 28
3.929377e-02 -4.915737e-01 -2.762825e+00 30 28 28
-6.360452e-02 -4.833681e-01 -2.725094e+00 206 209 205
-6.360043e-02 -4.839630e-01 -2.724506e+00 206 209 205
-8.228768e-02 -4.750859e-01 -2.715926e+00 22 21 26
-8.228768e-02 -4.750859e-01 -2.715926e+00 22 21 26
1.817041e+00 -9.282372e-01 -5.658335e+00 128 126 131
2.300151e-02 -4.731855e-01 -2.750164e+00 214 215 208
-1.307177e-01 -4.638889e-01 -2.695459e+00 210 209 202
-1.891600e-02 -4.640022e-01 -2.733467e+00 13 17 19
-9.959911e-02 -4.589667e-01 -2.704051e+00 214 217 211
-9.954803e-02 -4.585704e-01 -2.703793e+00 214 217 211
-1.156188e-02 -4.476390e-01 -2.729523e+00 218 219 217
6.088964e-02 -4.381677e-01 -2.749843e+00 216 222 220
9.474597e-02 -4.317710e-01 -2.761738e+00 216 218 215
-1.020808e-01 -4.130672e-01 -2.689489e+00 215 222 216
2.890178e-02 -3.952583e-01 -2.727992e+00 216 224 217
-1.045578e-01 -3.853765e-01 -2.674763e+00 216 217 214
7.872305e-02 -3.746318e-01 -2.739579e+00 21 20 16
-3.390858e-02 -3.456016e-01 -2.688995e+00 209 212 208
1.004720e-01 -3.413619e-01 -2.735726e+00 110 0 0
1.004720e-01 -3.413619e-01 -2.735726e+00 110 0 0
2.826960e+00 -7.071142e-01 -5.979928e+00 56 53 56
7.659699e-01 5.810417e-02 -3.051682e+00 111 121 91
7.357231e-01 1.062144e-01 -3.016676e+00 164 181 163
7.447660e-01 1.360597e-01 -2.993062e+00 190 202 191
6.914429e-01 4.296967e-01 -2.940573e+00 169 180 166
-3.889102e-02 4.669981e-01 -2.787184e+00 160 151 142
-3.889102e-02 4.669981e-01 -2.787184e+00 160 151 142
2.248869e-01 4.622552e-01 -2.783327e+00 27 34 42
-7.079508e-02 5.092370e-01 -2.765874e+00 116 112 109
-7.844324e-01 5.048913e-01 -2.607578e+00 52 28 24
-2.853495e-01 5.502455e-01 -2.739768e+00 69 61 54
-2.794767e-01 6.357475e-01 -2.749493e+00 133 130 121
-7.700313e-01 6.916804e-01 -2.626346e+00 137 122 125
-3.008765e-01 -9.960514e-01 -2.669821e+00 15 16 13
-3.529628e-01 -9.343979e-01 -2.674191e+00 159 184 221
1.336466e-01 -9.029373e-01 -2.733556e+00 190 205 90
1.167418e-01 -8.999004e-01 -2.732929e+00 197 215 102
-4.276556e-01 -7.206635e-01 -2.827232e+00 93 136 91
-5.186596e-01 -6.456663e-01 -2.763787e+00 19 61 23
-6.082520e-02 -6.369262e-01 -2.775134e+00 174 121 115
-3.679949e-02 -6.324170e-01 -2.781276e+00 188 149 148
-1.467291e-02 -6.289697e-01 -2.786573e+00 170 133 129
-5.045039e-01 -6.233572e-01 -2.760945e+00 16 57 22
4.408282e-02 -6.206839e-01 -2.804240e+00 183 141 145
1.054299e-01 -6.119078e-01 -2.824422e+00 183 141 139
-1.068906e-01 -5.013236e-01 -2.716356e+00 17 15 13
-1.077496e-01 -5.017763e-01 -2.716639e+00 17 15 13
9.976075e-02 -5.068242e-01 -2.788871e+00 218 222 216
-7.468161e-01 -4.896068e-01 -2.696633e+00 22 100 120
1.709326e+00 -9.476668e-01 -5.605700e+00 92 77 79
-3.038117e-02 -4.787127e-01 -2.734238e+00 218 220 216
-4.955319e-03 -4.745002e-01 -2.741197e+00 217 218 216
-7.331914e-02 -4.564651e-01 -2.711569e+00 213 213 213
9.823314e-02 -4.590352e-01 -2.772557e+00 218 222 217
9.856754e-02 -4.592955e-01 -2.772126e+00 218 222 217
-3.340161e-02 -4.519460e-01 -2.723157e+00 219 215 217
4.285162e-02 -4.534364e-01 -2.750765e+00 19 15 18
4.290053e-02 -4.534297e-01 -2.750516e+00 19 15 18
1.667794e-03 -4.368303e-01 -2.731208e+00 13 15 11
1.320207e-03 -4.355600e-01 -2.734351e+00 13 15 11
2.338420e-02 -3.543314e-01 -2.712278e+00 91 2 0
-2.519053e-03 -3.541946e-01 -2.704376e+00 60 17 11
-1.525424e-01 -3.454854e-01 -2.651138e+00 17 17 16
-1.524181e-01 -3.453896e-01 -2.649897e+00 17 17 16
5.198873e-02 -3.494683e-01 -2.721090e+00 80 1 0
-1.340807e-02 -3.290085e-01 -2.688489e+00 222 220 215
4.745857e-01 -3.151827e-01 -2.623881e+00 100 173 76
1.949622e+00 -6.820348e-01 -5.911526e+00 133 121 125
5.114356e-02 -3.159042e-01 -2.709996e+00 81 2 0
-7.512725e-01 -3.046138e-01 -2.633206e+00 82 166 185
2.028144e+00 -6.554505e-01 -5.939905e+00 133 122 128
1.956143e+00 -6.527270e-01 -5.940019e+00 81 61 63
2.010306e+00 -5.527599e-01 -6.037639e+00 132 119 125
-7.631133e-01 -2.096037e-01 -2.590858e+00 72 166 196
-3.843639e-01 -1.801846e-01 -2.687926e+00 204 216 208
8.831160e-01 -2.526785e-02 -3.265594e+00 52 49 34
4.946159e-01 2.564443e-02 -3.158624e+00 39 87 4
1.010898e+00 5.054294e-02 -3.214381e+00 219 224 220
8.637107e-01 1.469263e-01 -3.147008e+00 75 70 62
1.054658e+00 2.459845e-01 -3.202547e+00 214 211 214
6.522929e-01 3.764340e-01 -2.981013e+00 135 152 133
6.755507e-01 4.169271e-01 -2.945043e+00 217 232 226
6.620829e-01 4.280043e-01 -2.945093e+00 158 175 158
-8.611877e-01 4.581051e-01 -2.657130e+00 81 68 68
-7.647531e-01 5.105101e-01 -2.597310e+00 131 114 108
6.455298e-01 5.871935e-01 -2.839202e+00 122 139 121
6.574113e-01 5.942047e-01 -2.828162e+00 190 208 195
1.188850e-01 -6.259702e-01 -2.836552e+00 77 25 9
-3.333392e-03 -5.210675e-01 -2.756805e+00 219 220 222
-1.815593e-01 -4.795864e-01 -2.715112e+00 169 124 98
-3.747170e-01 3.827893e-01 -2.747877e+00 233 238 241
-3.762617e-01 3.874226e-01 -2.758862e+00 233 238 241
5.693349e-02 -9.346300e-01 -2.751865e+00 77 59 18
4.442832e-01 2.989004e-01 -2.804435e+00 97 4 0
-1.291021e-01 4.612631e-01 -2.813471e+00 106 92 79
-4.880099e-01 -5.022271e-01 -2.724949e+00 44 41 41
-6.390531e-01 -2.186157e-01 -2.622757e+00 18 18 16
-1.236672e-01 5.791410e-01 -2.798594e+00 178 183 179
-4.865928e-01 -1.052315e+00 -2.598167e+00 29 37 37
-2.204351e-01 5.353290e-01 -2.758686e+00 186 191 181
-4.661532e-01 -6.299332e-01 -2.779580e+00 41 35 34
-5.314815e-01 -2.875497e-01 -2.637525e+00 77 90 72
-1.670460e-01 -2.669655e-01 -2.627540e+00 181 111 66
-1.670460e-01 -2.669655e-01 -2.627540e+00 181 111 66
-1.731463e-01 3.938042e-01 -2.874454e+00 235 243 247
-1.252158e-02 -8.787016e-01 -2.718529e+00 231 233 77
-4.147977e-01 -5.738978e-01 -2.785711e+00 29 21 18
-6.707263e-01 -1.669661e-01 -2.618890e+00 108 170 188
2.785933e-01 1.514743e-01 -2.839817e+00 28 54 17
-1.163103e-02 -1.025393e+00 -2.644315e+00 181 136 67
-1.163103e-02 -1.025393e+00 -2.644315e+00 181 136 67
1.066837e+00 -5.753512e-01 -3.431019e+00 109 103 95
-4.528850e-01 -1.944278e-01 -2.657167e+00 89 99 88
-4.401854e-01 -1.011915e-01 -2.724735e+00 180 178 189
-6.929803e-01 5.052667e-02 -2.545800e+00 189 209 173
-5.283004e-01 3.892143e-01 -3.025790e+00 93 184 215
3.029079e-01 2.336082e-01 -2.846675e+00 92 0 0
-6.428959e-01 2.284493e-01 -2.596882e+00 228 233 237
-1.977269e-01 3.727271e-01 -2.939811e+00 230 132 164
5.353373e-01 -1.133770e+00 -2.652954e+00 145 148 138
2.151986e-01 -1.073768e+00 -2.627539e+00 45 49 48
5.895949e-01 -1.106863e+00 -2.686306e+00 148 153 142
-6.748864e-02 -1.022048e+00 -2.647728e+00 46 51 54
1.209236e-01 -9.971341e-01 -2.681196e+00 42 51 52
-3.063192e-02 -9.545764e-01 -2.729411e+00 102 123 109
-5.147765e-01 -5.745833e-01 -2.744973e+00 45 40 40
-6.738683e-01 -3.660737e-01 -2.688716e+00 201 188 151
-6.920370e-01 -2.198670e-01 -2.635402e+00 208 110 131
-5.358022e-01 -1.063140e-01 -2.672759e+00 182 86 114
-3.818073e-01 -8.770933e-02 -2.746536e+00 179 195 207
-4.132458e-01 -7.283786e-02 -2.726657e+00 186 87 118
-4.636716e-01 4.093504e-01 -3.062336e+00 223 122 156
-7.029198e-01 3.303307e-01 -2.575797e+00 157 165 158
-1.802859e-01 5.668875e-01 -2.807291e+00 192 201 196
2.402475e-01 6.510873e-01 -2.813490e+00 158 167 162
2.039861e-01 6.460955e-01 -2.732638e+00 150 155 145
-5.083456e-01 -1.148854e+00 -2.517879e+00 91 116 111
6.717195e-01 -8.907758e-01 -2.908203e+00 147 152 142
-5.064862e-01 -6.666050e-01 -2.774294e+00 46 66 42
-1.741648e-01 -1.506037e-01 -2.790783e+00 203 201 179
4.465843e-01 2.682183e-01 -2.886280e+00 120 18 18
3.024436e-01 -1.183595e+00 -2.525750e+00 151 171 168
-1.174064e-01 -9.215542e-01 -2.758981e+00 43 33 9
2.277516e-02 -8.758730e-01 -2.741967e+00 39 42 6
2.544488e-02 -6.246392e-01 -2.798537e+00 183 135 133
2.743669e-02 -6.250734e-01 -2.780680e+00 183 135 133
-1.324540e-01 -4.164791e-01 -2.679060e+00 218 219 217
-4.768284e-01 -2.195137e-01 -2.339131e+00 155 195 197
-6.633476e-01 3.585336e-01 -2.556829e+00 230 230 234
-6.993573e-01 -8.069933e-01 -2.814643e+00 195 76 113
7.834950e-02 -8.791907e-01 -2.738591e+00 218 234 126
-4.498965e-01 -7.304592e-01 -2.818727e+00 95 130 88
1.032350e+00 -7.683877e-01 -2.764822e+00 109 144 63
8.028577e-04 -5.964040e-01 -2.900053e+00 25 19 16
-2.933771e-03 -5.217281e-01 -2.755677e+00 221 222 219
1.534327e-02 -4.070878e-01 -2.726490e+00 17 17 18
1.542736e-02 -4.069481e-01 -2.726698e+00 17 17 18
-1.453943e-01 -3.910787e-01 -2.666178e+00 211 214 214
-3.782904e-02 -3.754918e-01 -2.698049e+00 223 216 214
2.354085e-02 -3.543749e-01 -2.712887e+00 117 6 2
9.875904e-01 7.291893e-02 -3.196069e+00 211 209 201
9.486904e-01 7.889139e-02 -3.150606e+00 204 208 199
-4.645915e-01 -4.018536e-01 -2.718383e+00 90 175 120
-9.518944e-02 -5.174992e-01 -2.729481e+00 200 201 196
-5.566757e-01 1.150385e-01 -2.690608e+00 221 78 134
3.473251e-01 -3.841039e-02 -3.120962e+00 104 154 75
-5.060843e-01 -6.658094e-01 -2.773394e+00 28 57 33
-5.466243e-02 -4.113991e-01 -2.703881e+00 198 201 193
4.864548e-02 -4.715266e-01 -2.757267e+00 214 218 212
9.099113e-01 9.263118e-03 -3.216886e+00 199 203 197
6.206931e-03 -6.270525e-01 -2.792984e+00 187 146 145
-1.512854e-01 -3.780000e-01 -2.661210e+00 19 18 17
-1.519622e-01 -3.781790e-01 -2.662870e+00 19 18 17
9.567630e-02 -2.962468e-01 -2.720857e+00 247 39 33
-6.829652e-01 -2.961571e-01 -2.662617e+00 183 87 112
8.022874e-02 -3.450724e-01 -2.736079e+00 243 42 33
-6.953089e-01 -6.448648e-02 -2.588338e+00 140 171 175
-1.490227e-01 -6.939056e-01 -2.742394e+00 211 185 39
-1.242415e-01 -3.101104e-01 -2.651494e+00 217 221 216
-4.877231e-01 3.305204e-01 -2.792867e+00 235 237 242
-1.714674e-01 -3.950574e-01 -2.661209e+00 210 210 205
-5.739119e-01 -3.168081e-01 -2.646423e+00 87 111 87
-6.615188e-01 -4.954366e-01 -2.732211e+00 116 178 177
-7.833102e-02 -4.011686e-01 -2.694877e+00 29 29 27
-2.646890e-01 3.071362e-01 -2.795206e+00 95 200 226
1.345622e-01 -1.310878e+00 -2.491700e+00 57 23 11
-9.099589e-02 -3.535488e-01 -2.673818e+00 213 214 213
-4.152570e-01 -7.533449e-01 -2.842695e+00 120 147 131
-7.264573e-01 -6.851652e-01 -2.767653e+00 148 30 57
-1.088275e-01 -5.026447e-01 -2.713801e+00 16 18 13
8.033956e-02 -4.635456e-01 -2.766548e+00 218 219 219
-4.564785e-01 4.205785e-03 -2.682344e+00 170 199 207
4.212211e-01 1.076832e+00 -2.836980e+00 59 28 24
-6.102899e-02 -6.372771e-01 -2.774880e+00 162 120 121
5.242854e-02 -3.507480e-01 -2.718960e+00 92 7 1
-5.673755e-01 -4.858848e-01 -2.722485e+00 33 35 29
4.366995e-01 4.685134e-01 -2.840104e+00 135 210 113
2.194404e-01 -1.010930e+00 -2.683145e+00 21 62 39
8.278929e-02 -4.062817e-01 -2.750721e+00 75 78 77
-5.454151e-01 -3.309328e-01 -2.661666e+00 79 149 108
6.716742e-01 5.230327e-01 -2.904471e+00 120 123 104
2.506684e-01 7.086739e-01 -2.688061e+00 220 231 230
5.472884e-01 -1.102010e+00 -2.665845e+00 41 26 17
-4.736579e-01 -7.975304e-01 -2.822140e+00 69 150 100
-4.160649e-01 -7.809268e-01 -2.840098e+00 76 155 103
-2.520945e-01 3.916358e-01 -2.778964e+00 168 169 154
-2.520945e-01 3.916358e-01 -2.778964e+00 168 169 154
6.740636e-01 5.200247e-01 -2.905693e+00 117 121 103
-6.308760e-01 -1.141698e+00 -2.523714e+00 77 106 88
1.107770e-01 -5.273014e-01 -2.795878e+00 22 19 19
-6.640622e-01 -4.978388e-01 -2.739123e+00 107 170 168
5.273168e-01 1.516461e-01 -3.186034e+00 18 35 13
-5.120556e-01 9.803596e-02 -2.619965e+00 197 214 166
-5.704508e-01 1.888808e-01 -2.577168e+00 212 100 138
6.404442e-01 3.662098e-01 -2.993901e+00 161 184 160
2.309002e-01 -1.115185e+00 -2.568420e+00 60 79 96
-3.172765e-01 -9.951924e-01 -2.661989e+00 61 91 78
9.163018e-01 -8.861473e-02 -3.276872e+00 116 114 101
9.160323e-01 -9.024593e-02 -3.270469e+00 116 114 101
9.469433e-01 -2.365220e-02 -3.244424e+00 205 211 204
7.006140e-01 4.761687e-01 -2.910493e+00 161 169 158
-4.650019e-02 -6.506696e-01 -2.778859e+00 18 18 16
8.249636e-02 -5.079641e-01 -2.781906e+00 214 216 213
6.975939e-03 -6.272219e-01 -2.792010e+00 186 150 152
-4.839997e-03 -4.745008e-01 -2.741932e+00 215 219 216
6.021383e-02 -9.748785e-01 -2.679782e+00 33 69 55
-4.237194e-01 -7.381826e-01 -2.833289e+00 40 64 46
-1.244746e-01 -6.436055e-01 -2.758463e+00 144 117 113
1.204509e-01 -6.107789e-01 -2.831505e+00 49 7 0
-1.027675e-01 -5.136303e-01 -2.721094e+00 213 216 211
-1.028151e-01 -5.136207e-01 -2.721323e+00 213 216 211
9.960607e-02 -4.829858e-01 -2.780020e+00 214 217 217
-7.703040e-02 -4.985923e-01 -2.722582e+00 9 13 17
-2.955555e-02 -4.649066e-01 -2.728170e+00 10 13 20
9.374827e-02 -4.469497e-01 -2.766504e+00 16 13 16
-5.318230e-02 -4.455299e-01 -2.714561e+00 210 212 205
-1.316650e-01 -3.591801e-01 -2.661017e+00 17 16 18
-2.555615e-03 -3.221826e-01 -2.695729e+00 17 20 23
-1.281398e-01 -2.628826e-01 -2.633073e+00 174 112 68
4.112790e-01 -2.046718e-01 -2.634399e+00 147 214 118
9.487257e-01 5.133332e-02 -3.187102e+00 213 214 208
8.240460e-01 1.790926e-01 -3.149897e+00 195 198 192
8.816729e-01 2.002405e-01 -3.128469e+00 179 185 178
7.607384e-01 1.652451e-01 -2.964075e+00 201 213 209
7.388380e-01 4.070324e-01 -2.926903e+00 167 173 160
-6.978501e-01 -3.819956e-01 -2.679083e+00 200 63 107
-7.511613e-01 -1.864723e-01 -2.592171e+00 108 176 185
9.116309e-01 4.834778e-01 -3.055131e+00 131 107 98
-8.809477e-02 -1.198528e+00 -2.465353e+00 13 13 11
-6.228597e-01 -1.078656e+00 -2.514777e+00 28 28 30
9.103109e-02 -3.706041e-01 -2.742395e+00 23 16 21
-8.885768e-01 3.430623e+00 -9.335156e+00 92 58 57
-7.549411e-01 3.901628e-02 -2.529683e+00 183 202 153
7.171475e-01 -8.561124e-01 -2.852928e+00 78 118 43
-1.054731e-01 -2.660980e-03 -2.863302e+00 71 195 229
1.131940e-01 -5.207921e-01 -2.796999e+00 34 12 12
-3.455392e-02 -3.460731e-01 -2.687449e+00 209 212 208
4.522828e-01 7.159386e-01 -2.787276e+00 139 142 130
2.747078e-01 -8.310731e-01 -2.822436e+00 20 19 17
-5.521440e-01 -3.330429e-01 -2.655219e+00 88 135 99
2.947005e-01 -9.073711e-01 -2.769762e+00 240 249 105
-4.412388e-01 4.867744e-01 -2.726308e+00 178 177 169
3.620198e-01 -1.000255e+00 -2.701649e+00 7 13 12
-5.207884e-01 -4.026841e-01 -2.691103e+00 59 56 52
-3.133713e-01 6.080496e-01 -2.723154e+00 192 195 190
3.479742e-01 -1.326982e+00 -2.563441e+00 18 14 13
7.744625e-03 -4.549341e-01 -2.736916e+00 34 28 25
-9.357756e-02 2.022118e-01 -2.801113e+00 200 232 198
-6.345184e-01 2.202346e-01 -2.658176e+00 97 176 204
-8.590329e-01 2.665131e-01 -2.617711e+00 133 132 123
8.756228e-02 7.828331e-01 -2.792544e+00 140 140 134
-6.724041e-01 2.221075e-01 -2.606279e+00 64 52 38
-6.995396e-01 3.448952e-01 -2.610381e+00 159 167 159
-2.643878e-01 4.620416e-01 -2.765949e+00 76 69 61
-2.850858e-01 5.479670e-01 -2.746115e+00 78 66 54
-7.569060e-01 -9.997401e-01 -2.993723e+00 64 64 66
-4.373523e-01 -9.967326e-01 -2.671270e+00 42 85 66
-4.151024e-01 -7.527471e-01 -2.845210e+00 120 147 131
-1.149106e-02 -4.483649e-01 -2.730679e+00 224 224 221
-7.668324e-01 -1.808603e-01 -2.585106e+00 124 171 191
9.146453e-01 1.121548e-01 -3.150570e+00 190 196 181
7.765490e-01 2.605045e-01 -2.951435e+00 215 234 234
7.765490e-01 2.605045e-01 -2.951435e+00 215 234 234
6.596936e-01 3.268152e-01 -3.009109e+00 94 110 74
2.551680e-01 4.351238e-01 -2.774239e+00 93 133 76
2.721522e-01 4.802806e-01 -2.770323e+00 219 244 252
-7.868512e-01 -9.423029e-01 -2.942056e+00 74 70 73
-7.505519e-01 -9.228101e-01 -2.937534e+00 121 123 124
-2.320718e-02 -6.585741e-01 -2.796047e+00 212 195 79
9.889614e-02 -4.821391e-01 -2.783361e+00 218 222 219
-8.729364e-01 2.513474e-01 -2.623885e+00 80 58 50
7.124068e-01 3.351378e-01 -2.964820e+00 147 151 137
-3.164164e-01 5.390720e-01 -2.751093e+00 141 140 135
2.683337e-01 5.002586e-01 -2.774376e+00 37 65 61
1.045730e+00 6.123611e-01 -3.021058e+00 26 22 36
-7.902920e-01 5.043452e-01 -2.598844e+00 67 43 36
-6.722286e-01 -8.021668e-01 -2.829628e+00 113 162 176
1.037406e-01 -1.680138e-01 -2.736746e+00 32 30 18
-1.155566e-01 -6.606511e-01 -2.763312e+00 17 16 8
-4.334610e-02 -3.625835e-01 -2.686449e+00 18 20 19
1.205487e-01 -6.109151e-01 -2.830292e+00 49 7 0
-9.031281e-02 -7.709631e-01 -2.799496e+00 220 193 41
-1.260207e-01 5.896859e-01 -2.801445e+00 179 181 176
-1.687088e-01 -1.348070e+00 -2.442032e+00 149 146 143
9.362589e-02 -1.313928e+00 -2.491676e+00 176 175 164
7.169939e-01 3.938980e-01 -2.953485e+00 210 227 222
-9.423942e-02 6.783639e-01 -2.775036e+00 147 139 131
1.382970e-01 5.766665e-01 -2.712800e+00 201 213 212
3.678453e-01 -1.335139e+00 -2.558355e+00 130 132 128
3.678453e-01 -1.335139e+00 -2.558355e+00 130 132 128
-5.250075e-01 -7.788900e-01 -2.802606e+00 97 159 98
5.561351e-01 3.211467e-01 -2.965189e+00 158 217 123
-6.663661e-02 -1.398520e+00 -2.440313e+00 99 95 93
-2.355234e-01 -1.378726e+00 -2.431268e+00 36 26 24
-2.669256e-01 -1.377793e+00 -2.423642e+00 34 22 22
-2.462127e-01 -1.360496e+00 -2.423410e+00 153 148 143
-2.983434e-01 -1.227766e+00 -2.500884e+00 120 120 115
-1.388347e-01 -1.234603e+00 -2.511743e+00 131 133 128
6.106217e-01 -1.246822e+00 -2.625007e+00 150 140 134
4.985416e-01 -1.240018e+00 -2.595085e+00 178 186 173
6.345723e-01 -1.220710e+00 -2.629524e+00 183 191 183
-6.902912e-01 -2.225725e-01 -2.632999e+00 205 101 125
3.474636e-01 -3.754668e-02 -3.121801e+00 110 161 80
3.782201e-01 -2.962603e-02 -3.124178e+00 24 52 7
9.589431e-01 6.311920e-04 -3.230634e+00 122 110 93
9.589431e-01 6.311920e-04 -3.230634e+00 122 110 93
9.537405e-01 9.360670e-02 -3.153960e+00 191 199 193
6.819008e-01 3.611224e-01 -2.971166e+00 130 139 116
-2.562845e-01 5.606806e-01 -2.737466e+00 195 202 197
-2.595277e-01 6.237777e-01 -2.733409e+00 151 144 144
-2.315587e-01 -1.176355e+00 -2.490585e+00 10 11 10
4.745724e-01 -1.245271e+00 -2.585112e+00 186 192 180
6.613855e-01 -1.220550e+00 -2.632923e+00 187 194 184
6.563057e-02 -8.896104e-01 -2.741627e+00 47 46 16
9.869335e-01 8.928597e-02 -3.185970e+00 94 68 51
9.869335e-01 8.928597e-02 -3.185970e+00 94 68 51
2.633891e-01 3.661410e-01 -2.759653e+00 60 81 37
9.193356e-02 -9.089875e-01 -2.731582e+00 29 27 14
7.678479e-02 -4.630881e-01 -2.763832e+00 226 228 229
7.678479e-02 -4.630881e-01 -2.763832e+00 226 228 229
9.494464e-01 8.170723e-02 -3.156390e+00 208 213 202
9.868976e-01 9.384830e-02 -3.164515e+00 199 202 197
1.662735e-01 5.811744e-01 -2.744426e+00 99 91 71
6.386644e-01 6.062708e-01 -2.823015e+00 139 143 127
-8.192689e-02 -8.942687e-01 -2.747881e+00 155 127 2
-2.619475e-02 -4.322512e-01 -2.718406e+00 29 30 29
-2.619475e-02 -4.322512e-01 -2.718406e+00 29 30 29
1.838974e-02 -3.164521e-01 -2.704879e+00 65 26 18
3.789751e-01 -6.175179e-02 -3.138890e+00 58 103 27
7.519758e-01 1.568108e-01 -2.983090e+00 154 162 151
2.296907e-01 4.917435e-02 7.091963e-01 0 255 0
2.267442e-01 4.954688e-02 6.592846e-01 255 255 0
2.172594e-01 1.463451e+00 2.810057e-01 255 0 0
2.118863e-01 1.444048e+00 2.352382e-01 255 255 0
-3.273354e-01 -1.202138e+00 4.943586e-01 0 255 0
-3.237765e-01 -1.187346e+00 4.467293e-01 255 255 0
7.006467e-01 -9.368277e-01 2.687069e-01 255 0 0
6.900180e-01 -9.249005e-01 2.213279e-01 255 255 0
2.233223e+00 -1.035181e+00 2.426584e-01 0 255 0
2.204836e+00 -1.023552e+00 2.031748e-01 255 255 0
1.039416e+00 -2.202643e+00 -8.346417e-01 255 0 0
1.023234e+00 -2.170100e+00 -8.689794e-01 255 255 0
-1.521149e+00 -8.081768e-01 3.941878e-02 0 255 0
-1.503934e+00 -7.980052e-01 -6.409085e-03 255 255 0
2.475389e-01 -2.291110e+00 -7.239744e-01 255 0 0
2.371501e-01 -2.259732e+00 -7.614914e-01 255 255 0
