ply
format ascii 1.0
element face 0
property list uchar int vertex_indices
element vertex 520
property float x
property float y
property float z
property uchar diffuse_red
property uchar diffuse_green
property uchar diffuse_blue
end_header
-4.740830e-01 -3.586287e-01 -2.689350e+00 100 179 115
-1.459099e-01 -8.636419e-01 -2.750338e+00 227 230 74
-4.961249e-01 -5.006928e-01 -2.738125e+00 31 27 24
-4.484525e-01 -5.571770e-01 -2.768631e+00 100 164 102
-5.248913e-01 -4.091621e-01 -2.685908e+00 36 38 33
-1.663057e-01 -3.205537e-01 -2.629510e+00 207 206 203
-1.245746e-01 -3.131646e-01 -2.647228e+00 213 217 214
-1.007715e-01 -2.590228e-01 -2.641222e+00 113 67 40
7.248710e-01 3.839267e-01 -2.944988e+00 211 227 226
-1.223570e-01 -4.401249e-01 -2.688546e+00 207 210 203
-4.495004e-01 -2.595599e-01 -2.688988e+00 54 78 64
-7.520119e-01 -2.329840e-01 -2.610894e+00 103 173 181
-7.575043e-01 -1.848021e-01 -2.592164e+00 101 169 182
-5.105093e-01 -6.026405e-01 -2.751794e+00 88 154 97
-1.427352e-01 -4.888730e-01 -2.697673e+00 31 28 28
8.075903e-03 -4.568089e-01 -2.737954e+00 27 24 29
-8.974848e-02 -4.374240e-01 -2.699024e+00 25 24 24
-1.252464e-01 -3.809668e-01 -2.668567e+00 209 211 208
-6.005910e-02 -3.749436e-01 -2.688249e+00 207 208 199
9.566258e-01 4.174320e-02 -3.198537e+00 203 212 205
2.270530e+00 -1.335148e+00 -5.252106e+00 132 122 127
-4.544353e-01 -1.041467e+00 -2.613165e+00 32 35 40
1.210321e-01 -6.300681e-01 -2.832882e+00 56 9 2
6.703362e-02 -6.245313e-01 -2.810174e+00 166 126 127
-7.672194e-01 -4.965392e-01 -2.694133e+00 128 171 174
-5.589231e-02 -5.315832e-01 -2.741747e+00 209 212 205
2.643278e-02 -5.193187e-01 -2.764171e+00 210 211 208
-1.146174e-01 -4.736420e-01 -2.703115e+00 19 19 24
-1.146174e-01 -4.736420e-01 -2.703115e+00 19 19 24
1.116537e-01 -4.470975e-01 -2.771151e+00 38 21 22
4.958362e-02 -4.213609e-01 -2.741775e+00 33 29 32
4.958362e-02 -4.213609e-01 -2.741775e+00 33 29 32
-1.478419e-01 -4.109121e-01 -2.666740e+00 34 34 36
-5.108670e-01 -3.438675e-01 -2.675218e+00 54 99 66
3.382662e-02 -3.391003e-01 -2.706285e+00 244 44 38
1.010393e-01 -3.137532e-01 -2.723179e+00 63 7 1
2.496147e-01 4.619162e-01 -2.780886e+00 182 211 220
-1.398238e-01 -6.647744e-01 -2.760364e+00 31 21 0
-1.398238e-01 -6.647744e-01 -2.760364e+00 31 21 0
-7.504508e-01 -5.121150e-01 -2.706877e+00 147 33 69
-1.319195e-01 -4.670373e-01 -2.694933e+00 210 209 202
8.117568e-02 -4.482251e-01 -2.760693e+00 25 21 25
8.117568e-02 -4.482251e-01 -2.760693e+00 25 21 25
-1.334751e-01 -4.201390e-01 -2.677030e+00 213 215 208
3.010686e-02 -3.992587e-01 -2.725113e+00 216 224 217
6.745119e-02 -3.939283e-01 -2.736470e+00 223 223 222
9.490256e-02 -3.902886e-01 -2.745103e+00 220 225 217
1.297056e-02 -3.684671e-01 -2.710904e+00 238 38 34
4.241133e-02 -3.656515e-01 -2.720260e+00 237 39 35
-4.964821e-01 -2.222502e-01 -2.645106e+00 68 89 79
-4.111636e-03 -4.791329e-01 -2.738611e+00 217 218 216
-3.867179e-01 -1.801122e-01 -2.686790e+00 204 216 208
1.091580e+00 2.475286e-01 -3.230312e+00 62 54 55
-4.477052e-01 -5.570064e-01 -2.767638e+00 100 164 102
-5.531827e-02 -4.316544e-01 -2.708416e+00 144 144 142
-5.345726e-01 -3.267519e-01 -2.658959e+00 78 158 113
-1.734154e-01 -5.128281e-01 -2.707286e+00 203 202 195
1.091443e+00 2.482247e-01 -3.230888e+00 62 54 55
1.957946e+00 -9.013504e-01 -5.671122e+00 128 117 120
1.903895e+00 -7.641998e-01 -5.817331e+00 140 130 133
1.903895e+00 -7.641998e-01 -5.817331e+00 140 130 133
2.021761e+00 -6.561725e-01 -5.923633e+00 133 122 128
2.785154e-01 4.894021e-01 -2.777909e+00 217 247 254
1.920499e+00 -1.113754e+00 -5.461006e+00 80 74 79
1.855238e+00 -7.845064e-01 -5.791320e+00 92 77 80
-3.312253e-01 -9.320697e-01 -2.680244e+00 28 79 153
-3.312253e-01 -9.320697e-01 -2.680244e+00 28 79 153
5.235678e-02 -8.843411e-01 -2.739268e+00 212 233 126
2.774600e-01 5.103702e-01 -2.780511e+00 21 50 52
-4.902522e-01 -2.755220e-01 -2.665179e+00 62 85 67
-8.014093e-01 -1.834387e-01 -2.574878e+00 138 147 165
-3.633335e-03 -5.248180e-01 -2.757180e+00 218 220 218
-7.408786e-01 -6.383564e-01 -2.754742e+00 113 35 38
-7.709595e-01 1.847127e-02 -2.517117e+00 181 136 130
1.012421e+00 8.307748e-01 -3.121627e+00 208 217 216
-2.442872e-02 -8.806544e-01 -2.759207e+00 234 237 74
-1.495616e-01 -8.664760e-01 -2.756001e+00 227 230 74
-9.759716e-02 -2.582287e-01 -2.643425e+00 113 67 40
7.054706e-01 -3.545574e-01 -3.551643e+00 122 123 123
-1.712811e-01 -3.199920e-01 -2.625759e+00 207 206 203
-6.835323e-01 -1.632549e-01 -2.625180e+00 128 158 170
6.614472e-01 4.738799e-02 -3.160047e+00 67 116 50
-1.767482e-01 -9.960577e-01 -2.682896e+00 87 94 94
-1.483217e-01 3.002923e-01 -2.778146e+00 64 190 226
-5.115907e-01 -6.648015e-01 -2.767206e+00 30 58 39
-8.828355e-02 3.131827e-01 -2.800068e+00 230 110 152
-1.727823e-01 -1.051501e+00 -2.630031e+00 24 60 49
-2.182735e-01 -9.409822e-01 -2.745642e+00 25 70 43
-3.427166e-01 -9.174702e-01 -2.684572e+00 193 211 214
1.921473e+00 -1.204749e+00 -5.374844e+00 131 128 132
6.264443e-01 -6.362273e-01 -3.008546e+00 37 63 16
-5.106979e-01 -3.442324e-01 -2.678372e+00 54 99 66
-1.364652e-01 -2.809646e-01 -2.630666e+00 114 64 37
-1.741088e-01 -1.523832e-01 -2.784022e+00 201 200 180
1.700783e-02 -5.694656e-03 -2.869747e+00 41 15 18
2.117212e+00 -8.387747e-02 -6.518672e+00 96 94 99
6.841522e-01 3.704031e-01 -2.973513e+00 115 128 103
-1.559037e-01 4.286261e-01 -2.881610e+00 215 242 198
4.985991e-01 5.527299e-01 -2.846738e+00 41 53 63
-1.968614e-01 -1.015045e+00 -2.657944e+00 40 42 44
1.992640e+00 -1.641689e+00 -4.919543e+00 94 75 73
-1.821116e-01 -9.410560e-01 -2.737348e+00 28 61 38
2.022427e+00 -1.561048e+00 -5.000742e+00 148 132 134
2.077064e+00 -1.524654e+00 -5.048742e+00 140 138 144
2.215303e+00 -1.515669e+00 -5.057698e+00 81 63 71
2.019398e+00 -1.479663e+00 -5.089329e+00 137 130 139
1.801122e+00 -1.458815e+00 -5.096760e+00 150 138 144
2.140615e+00 -1.424266e+00 -5.147207e+00 128 119 123
1.950081e+00 -1.259029e+00 -5.319958e+00 99 89 87
2.204885e+00 -8.927915e-01 -5.713183e+00 83 65 62
2.158556e+00 -7.818913e-01 -5.821218e+00 86 74 77
2.158556e+00 -7.818913e-01 -5.821218e+00 86 74 77
2.038855e+00 -6.905594e-01 -5.916453e+00 86 71 71
2.038855e+00 -6.905594e-01 -5.916453e+00 86 71 71
2.058013e+00 -3.288597e-01 -6.245396e+00 110 110 111
9.124791e-01 -7.213103e-02 -3.279516e+00 100 101 90
7.431343e-01 2.819513e-01 -2.966439e+00 204 224 224
1.857486e+00 -1.693135e+00 -4.855493e+00 96 80 85
-4.413169e-01 -1.006062e+00 -2.653777e+00 34 71 51
1.736224e+00 -1.622205e+00 -4.914947e+00 99 83 85
1.833714e+00 -1.587109e+00 -4.949295e+00 90 79 81
-3.095977e-01 -9.323043e-01 -2.672847e+00 20 78 160
2.124705e+00 -1.528067e+00 -5.045328e+00 88 75 79
7.858764e-02 -8.846628e-01 -2.736004e+00 216 238 122
5.275334e-02 -8.821740e-01 -2.735705e+00 212 233 126
2.275753e+00 -1.512364e+00 -5.077554e+00 81 72 77
1.773146e+00 -1.046368e+00 -5.525232e+00 127 113 115
2.234156e+00 -1.051906e+00 -5.538884e+00 85 73 75
1.903601e+00 -9.715187e-01 -5.601736e+00 128 119 126
2.046324e+00 -9.193839e-01 -5.668931e+00 80 57 57
-7.411528e-02 -4.595702e-01 -2.714437e+00 213 213 213
1.947928e+00 -8.774098e-01 -5.718494e+00 131 119 122
2.200043e+00 -3.603308e-01 -6.260070e+00 113 107 114
-2.941571e-01 -5.365033e-02 -2.786011e+00 134 94 119
2.103898e+00 2.857211e-03 -6.610464e+00 80 76 77
2.393980e+00 2.151848e-01 -6.841782e+00 49 42 43
2.779976e-01 5.098664e-01 -2.783827e+00 21 50 52
-6.817734e-02 -7.877331e-01 -2.774940e+00 221 198 54
-2.947451e-01 -7.337521e-01 -2.714596e+00 23 23 16
-5.597053e-01 3.056129e-01 -2.595328e+00 220 225 227
-6.969054e-01 -5.916203e-01 -2.732089e+00 183 165 141
1.139707e+00 5.478343e-01 -3.176513e+00 21 21 23
-8.300928e-02 -6.005490e-01 -2.761583e+00 17 17 15
7.584564e-01 2.173054e-01 -2.951746e+00 201 219 218
-6.774838e-01 -7.558028e-01 -2.824666e+00 71 148 161
-5.047812e-01 -7.083536e-01 -2.792392e+00 97 164 100
-5.034715e-01 -7.070543e-01 -2.793988e+00 97 164 100
3.094225e-01 -6.793749e-01 -2.959054e+00 116 181 93
6.830199e-01 -6.748034e-01 -2.990178e+00 113 183 95
-3.780307e-01 -2.731663e-01 -2.700980e+00 15 15 14
1.165781e-01 7.345682e-01 -2.806122e+00 117 123 122
2.904581e-01 -9.175856e-01 -2.767273e+00 242 252 94
3.212020e-01 -8.578859e-01 -2.757303e+00 25 23 18
-4.660433e-01 -4.026836e-01 -2.713649e+00 90 175 120
6.398886e-01 5.059172e-01 -2.936343e+00 197 217 209
-8.702071e-02 6.888304e-01 -2.787880e+00 147 143 137
-7.535761e-01 -9.111796e-01 -2.918067e+00 114 121 128
6.799421e-01 -7.917935e-01 -2.887699e+00 14 18 12
7.289458e-01 -8.510104e-03 -3.116568e+00 109 179 90
-7.683828e-01 6.707328e-01 -2.629682e+00 157 151 150
-2.969484e+00 3.226933e+00 -8.989359e+00 69 44 43
-2.650463e-01 -8.979759e-01 -2.805340e+00 111 112 107
7.032991e-01 -8.880743e-01 -2.917931e+00 21 17 14
-4.711581e-01 -7.581350e-01 -2.816103e+00 30 41 26
-1.030209e-02 -5.069513e-01 -2.746039e+00 126 127 124
8.264116e-02 -4.944814e-01 -2.776366e+00 217 215 212
-4.427922e-01 -2.261887e-01 -2.677089e+00 150 166 158
8.778775e-01 -4.646555e-02 -3.261120e+00 55 41 28
9.117870e-01 -8.413574e-03 -3.239675e+00 176 181 174
6.071699e-01 1.304813e-01 -3.158737e+00 81 137 68
-2.808915e-01 5.011965e-01 -2.736422e+00 61 49 40
-2.732767e-01 5.939783e-01 -2.742083e+00 198 200 194
-2.662757e-01 6.467712e-01 -2.744888e+00 151 150 145
-1.420988e-01 -1.063394e+00 -2.625204e+00 184 204 207
-1.435267e-01 -9.731525e-01 -2.705909e+00 41 48 47
1.043187e+00 -9.369734e-01 -2.874883e+00 60 32 14
-2.156797e-01 -9.025121e-01 -2.788866e+00 34 28 16
-5.297373e-01 -7.830296e-01 -2.801734e+00 95 154 92
-1.669780e-01 -5.710070e-01 -2.719885e+00 207 181 39
-1.711942e-01 -5.131946e-01 -2.700184e+00 203 202 195
-1.733819e-01 -3.965715e-01 -2.658509e+00 205 206 201
-1.464895e-01 -3.573091e-01 -2.652944e+00 128 126 128
5.231612e-02 -3.189105e-01 -2.708966e+00 92 1 0
-5.855492e-01 -2.574766e-01 -2.620563e+00 73 93 72
-4.562380e-01 -2.628460e-01 -2.679380e+00 57 78 65
-6.988858e-01 5.515622e-02 -2.547973e+00 181 206 156
-5.336741e-01 1.216972e-01 -2.671295e+00 221 78 134
-9.283562e-01 2.734573e-01 -2.633807e+00 113 92 92
6.099802e-01 6.128374e-01 -2.864313e+00 91 100 79
1.070424e+00 7.867284e-01 -3.112685e+00 198 201 205
-1.477570e-01 -5.328151e-01 -2.710440e+00 53 12 6
-5.068123e-02 -4.683866e-01 -2.721094e+00 27 29 33
-8.990400e-02 -4.372390e-01 -2.699452e+00 25 24 24
2.666629e-02 -4.366903e-01 -2.735841e+00 210 213 210
-7.817975e-02 -4.060710e-01 -2.692001e+00 25 26 24
-3.444710e-02 -4.001591e-01 -2.704221e+00 29 29 27
-3.444710e-02 -4.001591e-01 -2.704221e+00 29 29 27
-2.232617e-02 -3.470251e-01 -2.692251e+00 215 214 213
5.182008e-03 -3.391079e-01 -2.700520e+00 33 25 20
4.879789e-03 -3.387835e-01 -2.700880e+00 33 25 20
-4.074279e-01 -1.945475e-01 -2.683166e+00 58 72 62
9.554275e-01 4.247315e-02 -3.199108e+00 203 212 205
-1.361035e-02 7.586004e-02 -2.882862e+00 120 201 214
9.113264e-01 7.205455e-02 -3.185216e+00 197 207 199
9.436663e-01 7.701677e-02 -3.180795e+00 74 62 46
7.492833e-01 3.071669e-01 -2.971189e+00 102 105 88
-8.332252e-01 3.596030e-01 -2.586227e+00 151 140 143
2.768816e-01 -8.535113e-01 -2.757743e+00 131 135 124
6.887922e-01 -8.551219e-01 -2.908432e+00 127 141 136
-7.426577e-01 -7.693854e-01 -2.793080e+00 168 74 97
-5.278783e-01 -6.336875e-01 -2.755844e+00 96 159 106
-9.078035e-02 -5.232989e-01 -2.725528e+00 207 210 203
1.113740e-01 -5.283494e-01 -2.800207e+00 34 12 12
8.739073e-02 -5.116097e-01 -2.782122e+00 213 215 211
1.143646e-01 -4.953141e-01 -2.785984e+00 41 14 9
1.131434e-01 -4.748512e-01 -2.781139e+00 41 12 7
6.160960e-02 -4.613812e-01 -2.757659e+00 20 22 22
6.174705e-02 -4.614474e-01 -2.757641e+00 20 22 22
1.090625e+00 -5.426949e-01 -3.359903e+00 32 27 22
-5.482335e-02 -4.141542e-01 -2.702548e+00 198 201 193
-1.182356e-01 -4.058882e-01 -2.678818e+00 28 31 33
-1.055585e-02 -4.078184e-01 -2.713504e+00 213 216 210
-1.096794e-02 -4.077867e-01 -2.716204e+00 213 216 210
1.100401e-01 -3.767735e-01 -2.749149e+00 44 10 6
-9.114520e-02 -3.552035e-01 -2.671567e+00 208 211 209
-9.139061e-02 -3.555279e-01 -2.672292e+00 208 211 209
-5.833610e-01 -3.457407e-01 -2.642710e+00 37 48 36
8.378994e-02 -3.544330e-01 -2.729796e+00 246 43 30
8.369308e-02 -3.531959e-01 -2.729539e+00 246 43 30
-3.258775e-02 -3.480143e-01 -2.686622e+00 209 214 209
3.344076e-02 -3.388857e-01 -2.707203e+00 244 44 38
8.136136e-02 -3.302873e-01 -2.723204e+00 243 42 33
8.132661e-02 -3.298353e-01 -2.722773e+00 243 42 33
1.007769e-01 -3.128307e-01 -2.724824e+00 63 7 1
-8.076420e-01 -1.217369e-01 -2.548573e+00 177 122 140
1.104150e+00 2.909628e-01 -3.255007e+00 55 51 53
6.838224e-01 4.871572e-01 -2.928889e+00 216 232 231
-8.007640e-01 5.633419e-01 -2.615198e+00 40 21 17
-8.202736e-01 5.997249e-01 -2.637051e+00 98 80 77
-1.087969e-01 7.201642e-01 -2.751845e+00 134 133 130
-1.086663e-01 7.230132e-01 -2.757324e+00 134 133 130
-1.201920e-01 -9.272719e-01 -2.768030e+00 51 35 3
2.192439e+00 -1.436859e+00 -5.125152e+00 81 76 77
-5.199839e-01 -8.148737e-01 -2.815018e+00 35 66 40
-7.225464e-01 -7.903818e-01 -2.804374e+00 146 24 52
1.589505e-01 -7.932657e-01 -2.898827e+00 193 63 29
-7.296505e-01 -7.137069e-01 -2.781655e+00 149 26 54
1.671436e+00 -1.224322e+00 -5.318586e+00 96 81 88
1.671436e+00 -1.224322e+00 -5.318586e+00 96 81 88
-5.394298e-01 -6.571608e-01 -2.758166e+00 111 164 112
8.498666e-02 -6.206331e-01 -2.817559e+00 163 125 122
-7.487296e-01 -5.127390e-01 -2.702657e+00 147 33 69
-4.551857e-02 -5.143503e-01 -2.737743e+00 28 27 23
-4.558726e-02 -5.141124e-01 -2.737830e+00 28 27 23
-9.388191e-02 -4.927188e-01 -2.715896e+00 214 212 206
3.963081e-02 -4.952354e-01 -2.762823e+00 30 28 28
3.963081e-02 -4.952354e-01 -2.762823e+00 30 28 28
-6.400448e-02 -4.873921e-01 -2.723848e+00 206 209 205
-6.404553e-02 -4.873821e-01 -2.723503e+00 206 209 205
-8.286739e-02 -4.784204e-01 -2.714978e+00 22 21 26
-8.286739e-02 -4.784204e-01 -2.714978e+00 22 21 26
1.813498e+00 -9.278314e-01 -5.642564e+00 128 126 131
2.360323e-02 -4.766578e-01 -2.748993e+00 214 215 208
-1.317307e-01 -4.670659e-01 -2.694249e+00 210 209 202
-1.887542e-02 -4.675507e-01 -2.731500e+00 13 17 19
-1.002810e-01 -4.617543e-01 -2.702900e+00 214 217 211
-1.002810e-01 -4.617543e-01 -2.702900e+00 214 217 211
-1.127937e-02 -4.506753e-01 -2.728675e+00 218 219 217
6.101683e-02 -4.412871e-01 -2.750272e+00 216 222 220
9.622166e-02 -4.347744e-01 -2.761389e+00 216 218 215
-1.028987e-01 -4.160821e-01 -2.688143e+00 215 222 216
2.970296e-02 -3.986352e-01 -2.726511e+00 216 224 217
-1.033247e-01 -3.867123e-01 -2.677372e+00 216 217 214
8.020061e-02 -3.778948e-01 -2.737483e+00 21 20 16
-3.375598e-02 -3.479099e-01 -2.687393e+00 209 212 208
1.019577e-01 -3.433838e-01 -2.734620e+00 110 0 0
1.019577e-01 -3.433838e-01 -2.734620e+00 110 0 0
2.805280e+00 -7.056717e-01 -5.936772e+00 56 53 56
7.737626e-01 5.794402e-02 -3.052011e+00 111 121 91
7.433415e-01 1.057838e-01 -3.013525e+00 164 181 163
7.523678e-01 1.356933e-01 -2.991373e+00 190 202 191
6.991829e-01 4.320753e-01 -2.938653e+00 169 180 166
-3.664978e-02 4.717520e-01 -2.787592e+00 160 151 142
-3.664978e-02 4.717520e-01 -2.787592e+00 160 151 142
2.290358e-01 4.671042e-01 -2.782962e+00 27 34 42
-6.907071e-02 5.155288e-01 -2.767232e+00 116 112 109
-7.875289e-01 5.103489e-01 -2.604178e+00 52 28 24
-2.853611e-01 5.561908e-01 -2.738999e+00 69 61 54
-2.792636e-01 6.423536e-01 -2.749046e+00 133 130 121
-7.727612e-01 6.990925e-01 -2.624148e+00 137 122 125
-3.047192e-01 -1.003285e+00 -2.670367e+00 15 16 13
-3.568214e-01 -9.408222e-01 -2.673804e+00 159 184 221
1.339954e-01 -9.103593e-01 -2.733896e+00 190 205 90
1.169473e-01 -9.072613e-01 -2.733252e+00 197 215 102
-4.314489e-01 -7.248468e-01 -2.827601e+00 93 136 91
-5.221573e-01 -6.490165e-01 -2.761067e+00 19 61 23
-6.154560e-02 -6.416120e-01 -2.775440e+00 174 121 115
-3.730254e-02 -6.370858e-01 -2.781512e+00 188 149 148
-1.495255e-02 -6.336499e-01 -2.786932e+00 170 133 129
-5.090951e-01 -6.267217e-01 -2.761096e+00 16 57 22
4.438158e-02 -6.253743e-01 -2.804797e+00 183 141 145
1.066889e-01 -6.173102e-01 -2.824477e+00 183 141 139
-1.078166e-01 -5.048302e-01 -2.715563e+00 17 15 13
-1.090003e-01 -5.051192e-01 -2.718218e+00 17 15 13
1.010019e-01 -5.107043e-01 -2.788675e+00 218 222 216
-7.525828e-01 -4.912736e-01 -2.696024e+00 22 100 120
1.706879e+00 -9.473657e-01 -5.591784e+00 92 77 79
-3.046146e-02 -4.821197e-01 -2.732990e+00 218 220 216
-4.780544e-03 -4.779597e-01 -2.740505e+00 217 218 216
-7.407078e-02 -4.596436e-01 -2.711145e+00 213 213 213
9.945645e-02 -4.624708e-01 -2.772247e+00 218 222 217
9.963427e-02 -4.627393e-01 -2.771944e+00 218 222 217
-3.351315e-02 -4.551578e-01 -2.722601e+00 219 215 217
4.352332e-02 -4.567772e-01 -2.750118e+00 19 15 18
4.352332e-02 -4.567772e-01 -2.750118e+00 19 15 18
1.696065e-03 -4.386490e-01 -2.733282e+00 13 15 11
1.696065e-03 -4.386490e-01 -2.733282e+00 13 15 11
2.410262e-02 -3.568169e-01 -2.710905e+00 91 2 0
-2.387737e-03 -3.560029e-01 -2.703530e+00 60 17 11
-1.535044e-01 -3.476401e-01 -2.648159e+00 17 17 16
-1.535044e-01 -3.476401e-01 -2.648159e+00 17 17 16
5.333996e-02 -3.520226e-01 -2.719421e+00 80 1 0
-1.303619e-02 -3.311706e-01 -2.686834e+00 222 220 215
4.794925e-01 -3.182479e-01 -2.621632e+00 100 173 76
1.944601e+00 -6.823001e-01 -5.891292e+00 133 121 125
5.216450e-02 -3.180609e-01 -2.708482e+00 81 2 0
-7.564758e-01 -3.045935e-01 -2.629602e+00 82 166 185
2.022219e+00 -6.558305e-01 -5.918366e+00 133 122 128
1.951023e+00 -6.531002e-01 -5.919318e+00 81 61 63
2.004463e+00 -5.535539e-01 -6.014922e+00 132 119 125
-7.689290e-01 -2.091010e-01 -2.589210e+00 72 166 196
-3.867408e-01 -1.802591e-01 -2.686123e+00 204 216 208
8.910523e-01 -2.647409e-02 -3.266655e+00 52 49 34
5.002736e-01 2.555490e-02 -3.159149e+00 39 87 4
1.019990e+00 4.948282e-02 -3.214407e+00 219 224 220
8.720167e-01 1.470173e-01 -3.146891e+00 75 70 62
1.063883e+00 2.461501e-01 -3.202736e+00 214 211 214
6.596246e-01 3.786781e-01 -2.980207e+00 135 152 133
6.832156e-01 4.185081e-01 -2.940043e+00 217 232 226
6.696907e-01 4.301027e-01 -2.941876e+00 158 175 158
-8.650685e-01 4.639096e-01 -2.654939e+00 81 68 68
-7.685962e-01 5.171741e-01 -2.596052e+00 131 114 108
6.530985e-01 5.914323e-01 -2.836754e+00 122 139 121
6.651069e-01 5.983971e-01 -2.827020e+00 190 208 195
1.205813e-01 -6.308465e-01 -2.833488e+00 77 25 9
-3.527540e-03 -5.251925e-01 -2.757477e+00 219 220 222
-1.830557e-01 -4.827634e-01 -2.714099e+00 169 124 98
-3.747650e-01 3.861970e-01 -2.743831e+00 233 238 241
-3.763940e-01 3.912136e-01 -2.755736e+00 233 238 241
5.648386e-02 -9.420799e-01 -2.752235e+00 77 59 18
4.501191e-01 3.009699e-01 -2.802273e+00 97 4 0
-1.271544e-01 4.650345e-01 -2.810279e+00 106 92 79
-4.919753e-01 -5.047230e-01 -2.724244e+00 44 41 41
-6.437679e-01 -2.184230e-01 -2.621255e+00 18 18 16
-1.213691e-01 5.834828e-01 -2.795011e+00 178 183 179
-4.926355e-01 -1.059620e+00 -2.599379e+00 29 37 37
-2.172181e-01 5.414296e-01 -2.768452e+00 186 191 181
-4.688715e-01 -6.336424e-01 -2.780200e+00 41 35 34
-5.338863e-01 -2.887299e-01 -2.630433e+00 77 90 72
-1.679278e-01 -2.684402e-01 -2.625071e+00 181 111 66
-1.679278e-01 -2.684402e-01 -2.625071e+00 181 111 66
-1.715511e-01 3.971763e-01 -2.871624e+00 235 243 247
-1.349136e-02 -8.856613e-01 -2.718483e+00 231 233 77
-4.151175e-01 -5.803226e-01 -2.772238e+00 29 21 18
-6.755092e-01 -1.662801e-01 -2.617288e+00 108 170 188
2.828837e-01 1.528070e-01 -2.838120e+00 28 54 17
-1.313592e-02 -1.033825e+00 -2.644339e+00 181 136 67
-1.313592e-02 -1.033825e+00 -2.644339e+00 181 136 67
1.074326e+00 -5.796018e-01 -3.434344e+00 109 103 95
-4.558185e-01 -1.947023e-01 -2.654765e+00 89 99 88
-4.425217e-01 -1.006149e-01 -2.722668e+00 180 178 189
-6.974745e-01 5.300328e-02 -2.543457e+00 189 209 173
-5.284162e-01 3.928453e-01 -3.023439e+00 93 184 215
3.075482e-01 2.353672e-01 -2.844466e+00 92 0 0
-6.456964e-01 2.301681e-01 -2.593002e+00 228 233 237
-1.961928e-01 3.759284e-01 -2.937229e+00 230 132 164
5.385897e-01 -1.144126e+00 -2.654648e+00 145 148 138
2.156218e-01 -1.083193e+00 -2.627701e+00 45 49 48
5.934058e-01 -1.116942e+00 -2.688223e+00 148 153 142
-6.948778e-02 -1.030288e+00 -2.647821e+00 46 51 54
1.207650e-01 -1.005512e+00 -2.681382e+00 42 51 52
-3.195201e-02 -9.620499e-01 -2.729779e+00 102 123 109
-5.195408e-01 -5.758392e-01 -2.746772e+00 45 40 40
-6.788075e-01 -3.671073e-01 -2.687179e+00 201 188 151
-6.951307e-01 -2.213140e-01 -2.630006e+00 208 110 131
-5.389777e-01 -1.057562e-01 -2.670116e+00 182 86 114
-3.835795e-01 -8.715596e-02 -2.744449e+00 179 195 207
-4.152794e-01 -7.210246e-02 -2.724487e+00 186 87 118
-4.632321e-01 4.129214e-01 -3.059928e+00 223 122 156
-7.062241e-01 3.347356e-01 -2.573033e+00 157 165 158
-1.783310e-01 5.709785e-01 -2.803079e+00 192 201 196
2.452012e-01 6.552786e-01 -2.810064e+00 158 167 162
2.085915e-01 6.503629e-01 -2.728673e+00 150 155 145
-5.152047e-01 -1.157182e+00 -2.519425e+00 91 116 111
6.760022e-01 -8.997837e-01 -2.904115e+00 147 152 142
-5.099412e-01 -6.708241e-01 -2.771852e+00 46 66 42
-1.743662e-01 -1.509548e-01 -2.788949e+00 203 201 179
4.524219e-01 2.700806e-01 -2.884756e+00 120 18 18
3.032718e-01 -1.194535e+00 -2.525598e+00 151 171 168
-1.193235e-01 -9.284254e-01 -2.759377e+00 43 33 9
2.215904e-02 -8.827488e-01 -2.742564e+00 39 42 6
2.550323e-02 -6.292923e-01 -2.799124e+00 183 135 133
2.541395e-02 -6.294763e-01 -2.798199e+00 183 135 133
-1.333392e-01 -4.192581e-01 -2.677568e+00 218 219 217
-4.813102e-01 -2.199433e-01 -2.335386e+00 155 195 197
-6.663412e-01 3.630524e-01 -2.553795e+00 230 230 234
-7.054364e-01 -8.108745e-01 -2.816201e+00 195 76 113
7.822104e-02 -8.862985e-01 -2.738701e+00 218 234 126
-4.540249e-01 -7.346566e-01 -2.819429e+00 95 130 88
1.040736e+00 -7.757068e-01 -2.767042e+00 109 144 63
1.045863e-03 -6.005296e-01 -2.900317e+00 25 19 16
-2.891868e-03 -5.255389e-01 -2.755381e+00 221 222 219
1.562260e-02 -4.099031e-01 -2.725774e+00 17 17 18
1.561458e-02 -4.095080e-01 -2.727687e+00 17 17 18
-1.477870e-01 -3.926258e-01 -2.667109e+00 211 214 214
-3.773959e-02 -3.780962e-01 -2.696555e+00 223 216 214
2.428489e-02 -3.568893e-01 -2.711279e+00 117 6 2
9.964751e-01 7.252603e-02 -3.197175e+00 211 209 201
9.574605e-01 7.863037e-02 -3.151586e+00 204 208 199
-4.680261e-01 -4.035876e-01 -2.716989e+00 90 175 120
-9.587484e-02 -5.211305e-01 -2.728688e+00 200 201 196
-5.597200e-01 1.176423e-01 -2.687844e+00 221 78 134
3.520541e-01 -3.859123e-02 -3.122534e+00 104 154 75
-5.103084e-01 -6.694920e-01 -2.773420e+00 28 57 33
-5.486496e-02 -4.142595e-01 -2.702646e+00 198 201 193
4.935004e-02 -4.750499e-01 -2.756642e+00 214 218 212
9.180900e-01 8.439954e-03 -3.217702e+00 199 203 197
6.288883e-03 -6.317032e-01 -2.792890e+00 187 146 145
-1.530529e-01 -3.805346e-01 -2.661092e+00 19 18 17
-1.530529e-01 -3.805346e-01 -2.661092e+00 19 18 17
9.724053e-02 -2.982785e-01 -2.719417e+00 247 39 33
-6.878379e-01 -2.964592e-01 -2.660827e+00 183 87 112
8.152775e-02 -3.476195e-01 -2.734847e+00 243 42 33
-6.999685e-01 -6.267440e-02 -2.585603e+00 140 171 175
-1.507702e-01 -6.989318e-01 -2.742508e+00 211 185 39
-1.254442e-01 -3.119834e-01 -2.649035e+00 217 221 216
-4.886355e-01 3.336952e-01 -2.788940e+00 235 237 242
-1.728562e-01 -3.976642e-01 -2.657407e+00 210 210 205
-5.782068e-01 -3.178144e-01 -2.644309e+00 87 111 87
-6.667138e-01 -4.974416e-01 -2.731267e+00 116 178 177
-7.815370e-02 -4.050158e-01 -2.692327e+00 29 29 27
-2.642120e-01 3.099674e-01 -2.791616e+00 95 200 226
1.340377e-01 -1.322095e+00 -2.491383e+00 57 23 11
-9.133039e-02 -3.559587e-01 -2.671956e+00 213 214 213
-4.190464e-01 -7.577556e-01 -2.843607e+00 120 147 131
-7.317064e-01 -6.881205e-01 -2.766288e+00 148 30 57
-1.097659e-01 -5.066068e-01 -2.713068e+00 16 18 13
8.136145e-02 -4.670200e-01 -2.766117e+00 218 219 219
-4.587148e-01 5.120913e-03 -2.678668e+00 170 199 207
4.279235e-01 1.081713e+00 -2.832093e+00 59 28 24
-6.164518e-02 -6.418518e-01 -2.774714e+00 162 120 121
5.347976e-02 -3.532440e-01 -2.717639e+00 92 7 1
-5.718697e-01 -4.880852e-01 -2.721526e+00 33 35 29
4.427239e-01 4.716475e-01 -2.837370e+00 135 210 113
2.200108e-01 -1.019617e+00 -2.684440e+00 21 62 39
8.391823e-02 -4.092115e-01 -2.750071e+00 75 78 77
-5.494183e-01 -3.320843e-01 -2.659636e+00 79 149 108
6.795068e-01 5.260088e-01 -2.902278e+00 120 123 104
2.556455e-01 7.133399e-01 -2.683611e+00 220 231 230
5.506438e-01 -1.112180e+00 -2.667843e+00 41 26 17
-4.777519e-01 -8.021148e-01 -2.822392e+00 69 150 100
-4.196658e-01 -7.855406e-01 -2.840394e+00 76 155 103
-2.509528e-01 3.947974e-01 -2.774619e+00 168 169 154
-2.509528e-01 3.947974e-01 -2.774619e+00 168 169 154
6.817285e-01 5.230439e-01 -2.903633e+00 117 121 103
-6.385630e-01 -1.148773e+00 -2.525124e+00 77 106 88
1.118328e-01 -5.312834e-01 -2.796265e+00 22 19 19
-6.689635e-01 -4.997798e-01 -2.737800e+00 107 170 168
5.336592e-01 1.522421e-01 -3.185180e+00 18 35 13
-5.142440e-01 9.979211e-02 -2.615712e+00 197 214 166
-5.727213e-01 1.913197e-01 -2.572489e+00 212 100 138
6.481403e-01 3.682521e-01 -2.992521e+00 161 184 160
2.310721e-01 -1.125179e+00 -2.569612e+00 60 79 96
-3.215784e-01 -1.002160e+00 -2.662966e+00 61 91 78
9.243797e-01 -9.005546e-02 -3.278930e+00 116 114 101
9.242148e-01 -9.172869e-02 -3.271435e+00 116 114 101
9.552588e-01 -2.474683e-02 -3.246105e+00 205 211 204
7.084307e-01 4.788974e-01 -2.908613e+00 161 169 158
-4.713667e-02 -6.554555e-01 -2.778942e+00 18 18 16
8.403885e-02 -5.121924e-01 -2.780877e+00 214 216 213
6.909840e-03 -6.319150e-01 -2.792098e+00 186 150 152
-3.821487e-03 -4.781365e-01 -2.738716e+00 215 219 216
5.936463e-02 -9.828691e-01 -2.680841e+00 33 69 55
-4.275933e-01 -7.425584e-01 -2.834093e+00 40 64 46
-1.258771e-01 -6.482403e-01 -2.758283e+00 144 117 113
1.207865e-01 -6.151605e-01 -2.834081e+00 49 7 0
-1.038204e-01 -5.172130e-01 -2.720696e+00 213 216 211
-1.038204e-01 -5.172130e-01 -2.720696e+00 213 216 211
1.006802e-01 -4.865819e-01 -2.780033e+00 214 217 217
-7.885805e-02 -5.015786e-01 -2.724452e+00 9 13 17
-2.971677e-02 -4.682003e-01 -2.727454e+00 10 13 20
9.486874e-02 -4.502366e-01 -2.766210e+00 16 13 16
-5.349166e-02 -4.486332e-01 -2.713381e+00 210 212 205
-1.325169e-01 -3.614338e-01 -2.659134e+00 17 16 18
-1.724472e-03 -3.244975e-01 -2.692356e+00 17 20 23
-1.286778e-01 -2.643275e-01 -2.630532e+00 174 112 68
4.158122e-01 -2.064994e-01 -2.632766e+00 147 214 118
9.574029e-01 5.076171e-02 -3.187703e+00 213 214 208
8.324122e-01 1.796550e-01 -3.150516e+00 195 198 192
8.902572e-01 2.007935e-01 -3.128956e+00 179 185 178
7.688206e-01 1.659444e-01 -2.963713e+00 201 213 209
7.469893e-01 4.092591e-01 -2.925473e+00 167 173 160
-7.027173e-01 -3.832229e-01 -2.677315e+00 200 63 107
-7.556425e-01 -1.864057e-01 -2.589091e+00 108 176 185
9.202228e-01 4.862020e-01 -3.054977e+00 131 107 98
-8.962748e-02 -1.208126e+00 -2.464245e+00 13 13 11
-6.240730e-01 -1.085200e+00 -2.511705e+00 28 28 30
9.249076e-02 -3.734638e-01 -2.741245e+00 23 16 21
2.303743e-01 5.182211e-02 7.899350e-01 0 255 0
2.275069e-01 5.216780e-02 7.400185e-01 255 255 0
2.230303e-01 1.488973e+00 3.295146e-01 255 0 0
2.176615e-01 1.469533e+00 2.837629e-01 255 255 0
-3.420193e-01 -1.230314e+00 5.582901e-01 0 255 0
-3.383145e-01 -1.215421e+00 5.107036e-01 255 255 0
7.086705e-01 -9.556393e-01 3.253966e-01 255 0 0
6.981267e-01 -9.436481e-01 2.780148e-01 255 255 0
2.276605e+00 -1.062538e+00 2.936774e-01 0 255 0
2.248185e+00 -1.050774e+00 2.542582e-01 255 255 0
1.044640e+00 -2.226940e+00 -8.241621e-01 255 0 0
1.028522e+00 -2.194268e+00 -8.584074e-01 255 255 0
