ply
format ascii 1.0
element face 0
property list uchar int vertex_indices
element vertex 141
property float x
property float y
property float z
property uchar diffuse_red
property uchar diffuse_green
property uchar diffuse_blue
end_header
-4.433718e-01 -3.558271e-01 -2.684142e+00 100 179 115
-1.461028e-01 -8.284077e-01 -2.756592e+00 227 230 74
-4.669959e-01 -4.839512e-01 -2.729521e+00 31 27 24
-4.221640e-01 -5.416792e-01 -2.770363e+00 100 164 102
-4.926433e-01 -4.010995e-01 -2.680508e+00 36 38 33
-1.674067e-01 -3.192125e-01 -2.618499e+00 207 206 203
-1.236423e-01 -3.125343e-01 -2.635839e+00 213 217 214
-9.921048e-02 -2.620010e-01 -2.632287e+00 113 67 40
6.643340e-01 3.326809e-01 -2.894349e+00 211 227 226
-1.225832e-01 -4.304463e-01 -2.677766e+00 207 210 203
-4.182777e-01 -2.621666e-01 -2.676284e+00 54 78 64
-7.033091e-01 -2.395618e-01 -2.615955e+00 103 173 181
-7.079124e-01 -1.954545e-01 -2.596018e+00 101 169 182
-4.831384e-01 -5.851563e-01 -2.755423e+00 88 154 97
-1.408667e-01 -4.758162e-01 -2.689478e+00 31 28 28
-6.362489e-04 -4.454283e-01 -2.724084e+00 27 24 29
-9.114331e-02 -4.279170e-01 -2.688534e+00 25 24 24
-1.232527e-01 -3.757146e-01 -2.662340e+00 209 211 208
-6.381403e-02 -3.702706e-01 -2.679556e+00 207 208 199
8.918090e-01 1.860004e-02 -3.137396e+00 203 212 205
2.281252e+00 -1.335526e+00 -5.289281e+00 132 122 127
-4.298230e-01 -9.861945e-01 -2.624661e+00 32 35 40
1.063216e-01 -6.068436e-01 -2.816299e+00 56 9 2
5.531330e-02 -6.023488e-01 -2.796918e+00 166 126 127
-7.184863e-01 -4.842493e-01 -2.701570e+00 128 171 174
-6.108241e-02 -5.160922e-01 -2.734218e+00 209 212 205
1.620843e-02 -5.046132e-01 -2.753526e+00 210 211 208
-1.144556e-01 -4.612948e-01 -2.694475e+00 19 19 24
-1.144556e-01 -4.612948e-01 -2.694475e+00 19 19 24
9.650819e-02 -4.375888e-01 -2.755996e+00 38 21 22
3.796896e-02 -4.137021e-01 -2.730874e+00 33 29 32
3.796896e-02 -4.137021e-01 -2.730874e+00 33 29 32
-1.455674e-01 -4.024458e-01 -2.654916e+00 34 34 36
-4.807989e-01 -3.428667e-01 -2.676791e+00 54 99 66
2.331930e-02 -3.371849e-01 -2.691785e+00 244 44 38
8.494868e-02 -3.120749e-01 -2.700363e+00 63 7 1
2.221753e-01 4.023160e-01 -2.742723e+00 182 211 220
-1.379498e-01 -6.403282e-01 -2.755770e+00 31 21 0
-1.379498e-01 -6.403282e-01 -2.755770e+00 31 21 0
-7.047303e-01 -5.010129e-01 -2.717367e+00 147 33 69
-1.305805e-01 -4.556343e-01 -2.689035e+00 210 209 202
6.788253e-02 -4.385049e-01 -2.746849e+00 25 21 25
6.788253e-02 -4.385049e-01 -2.746849e+00 25 21 25
-1.317639e-01 -4.112489e-01 -2.664806e+00 213 215 208
2.004266e-02 -3.921406e-01 -2.707733e+00 216 224 217
5.461037e-02 -3.868751e-01 -2.715952e+00 223 223 222
8.007477e-02 -3.836124e-01 -2.723689e+00 220 225 217
3.618059e-03 -3.641063e-01 -2.698738e+00 238 38 34
3.140863e-02 -3.617939e-01 -2.706793e+00 237 39 35
-4.658832e-01 -2.280525e-01 -2.634577e+00 68 89 79
-1.071502e-02 -4.649915e-01 -2.720925e+00 217 218 216
-3.655134e-01 -1.907825e-01 -2.678981e+00 204 216 208
1.013517e+00 2.105069e-01 -3.163336e+00 62 54 55
-4.221640e-01 -5.416792e-01 -2.770363e+00 100 164 102
-5.855528e-02 -4.214926e-01 -2.695209e+00 144 144 142
-5.020006e-01 -3.255884e-01 -2.656279e+00 78 158 113
-1.677019e-01 -4.972560e-01 -2.702282e+00 203 202 195
1.013517e+00 2.105069e-01 -3.163336e+00 62 54 55
2.008101e+00 -9.220653e-01 -5.772642e+00 128 117 120
1.963180e+00 -7.862095e-01 -5.933543e+00 140 130 133
1.963180e+00 -7.862095e-01 -5.933543e+00 140 130 133
2.085383e+00 -6.768512e-01 -6.041163e+00 133 122 128
2.497627e-01 4.274196e-01 -2.739517e+00 217 247 254
1.958408e+00 -1.132210e+00 -5.549071e+00 80 74 79
1.915646e+00 -8.081745e-01 -5.912971e+00 92 77 80
-3.155672e-01 -8.862261e-01 -2.684019e+00 28 79 153
-3.155672e-01 -8.862261e-01 -2.684019e+00 28 79 153
4.133670e-02 -8.418029e-01 -2.733092e+00 212 233 126
2.482898e-01 4.467521e-01 -2.740612e+00 21 50 52
-4.604156e-01 -2.782928e-01 -2.664817e+00 62 85 67
-7.483283e-01 -1.931862e-01 -2.578987e+00 138 147 165
-1.074578e-02 -5.098588e-01 -2.746734e+00 218 220 218
-6.938824e-01 -6.161984e-01 -2.760164e+00 113 35 38
-7.196443e-01 -8.300929e-03 -2.519841e+00 181 136 130
9.327276e-01 7.476884e-01 -3.041909e+00 208 217 216
-2.989932e-02 -8.412242e-01 -2.757442e+00 234 237 74
-1.461028e-01 -8.284077e-01 -2.756592e+00 227 230 74
-9.921048e-02 -2.620010e-01 -2.632287e+00 113 67 40
6.707703e-01 -3.556730e-01 -3.509826e+00 122 123 123
-1.674067e-01 -3.192125e-01 -2.618499e+00 207 206 203
-6.401009e-01 -1.755617e-01 -2.625219e+00 128 158 170
6.143801e-01 2.298552e-02 -3.108784e+00 67 116 50
-1.720642e-01 -9.473693e-01 -2.689170e+00 87 94 94
-1.443501e-01 2.536442e-01 -2.749809e+00 64 190 226
-4.821857e-01 -6.418400e-01 -2.770278e+00 30 58 39
-8.865854e-02 2.658194e-01 -2.769211e+00 230 110 152
-1.688789e-01 -9.973719e-01 -2.639035e+00 24 60 49
-2.100258e-01 -8.978607e-01 -2.749664e+00 25 70 43
-3.259187e-01 -8.748604e-01 -2.692369e+00 193 211 214
1.951325e+00 -1.217361e+00 -5.446336e+00 131 128 132
5.798963e-01 -6.149385e-01 -2.980263e+00 37 63 16
-4.807989e-01 -3.428667e-01 -2.676791e+00 54 99 66
-1.352205e-01 -2.830695e-01 -2.621508e+00 114 64 37
-1.683440e-01 -1.647699e-01 -2.766965e+00 201 200 180
9.749765e-03 -2.837827e-02 -2.842042e+00 41 15 18
2.219910e+00 -9.615285e-02 -6.693699e+00 96 94 99
6.277441e-01 3.211812e-01 -2.917509e+00 115 128 103
-1.501633e-01 3.731911e-01 -2.846655e+00 215 242 198
4.524443e-01 4.871251e-01 -2.794995e+00 41 53 63
-1.909262e-01 -9.643874e-01 -2.665756e+00 40 42 44
1.989887e+00 -1.633295e+00 -4.953223e+00 94 75 73
-1.765187e-01 -8.975889e-01 -2.740863e+00 28 61 38
2.024652e+00 -1.556868e+00 -5.038939e+00 148 132 134
2.081357e+00 -1.522166e+00 -5.088414e+00 140 138 144
2.216286e+00 -1.511569e+00 -5.091750e+00 81 63 71
2.028054e+00 -1.480055e+00 -5.134367e+00 137 130 139
1.815105e+00 -1.462432e+00 -5.151138e+00 150 138 144
2.150391e+00 -1.425721e+00 -5.191283e+00 128 119 123
1.975921e+00 -1.269629e+00 -5.385893e+00 99 89 87
2.254265e+00 -9.102488e-01 -5.802407e+00 83 65 62
2.215663e+00 -8.007966e-01 -5.922128e+00 86 74 77
2.215663e+00 -8.007966e-01 -5.922128e+00 86 74 77
2.102810e+00 -7.107795e-01 -6.031720e+00 86 71 71
2.102810e+00 -7.107795e-01 -6.031720e+00 86 71 71
2.142280e+00 -3.462040e-01 -6.390828e+00 110 110 111
8.527155e-01 -8.794307e-02 -3.223956e+00 100 101 90
6.822892e-01 2.394815e-01 -2.911610e+00 204 224 224
1.854159e+00 -1.683054e+00 -4.890237e+00 96 80 85
-4.174933e-01 -9.566863e-01 -2.666295e+00 34 71 51
1.740014e+00 -1.617557e+00 -4.958518e+00 99 83 85
1.837233e+00 -1.583003e+00 -4.991123e+00 90 79 81
-2.952797e-01 -8.882571e-01 -2.680669e+00 20 78 160
2.127402e+00 -1.524680e+00 -5.082583e+00 88 75 79
6.529120e-02 -8.440184e-01 -2.732894e+00 216 238 122
4.133670e-02 -8.418029e-01 -2.733092e+00 212 233 126
2.276621e+00 -1.508282e+00 -5.110861e+00 81 72 77
1.813870e+00 -1.063967e+00 -5.614764e+00 127 113 115
2.270612e+00 -1.065749e+00 -5.610859e+00 85 73 75
1.947888e+00 -9.894090e-01 -5.692397e+00 128 119 126
2.093905e+00 -9.373095e-01 -5.760153e+00 80 57 57
-7.665515e-02 -4.489889e-01 -2.705108e+00 213 213 213
1.999534e+00 -8.968438e-01 -5.818736e+00 131 119 122
2.286851e+00 -3.779083e-01 -6.403900e+00 113 107 114
-2.794121e-01 -7.354710e-02 -2.769133e+00 134 94 119
2.212390e+00 -6.985917e-03 -6.797180e+00 80 76 77
2.522456e+00 2.132217e-01 -7.045259e+00 49 42 43
2.482898e-01 4.467521e-01 -2.740612e+00 21 50 52
1.415958e-01 1.402798e-02 3.637949e-01 0 255 0
1.395780e-01 1.456449e-02 3.138385e-01 255 255 0
1.351287e-01 1.226875e+00 1.785980e-02 255 0 0
1.305659e-01 1.208577e+00 -2.844730e-02 255 255 0
